ncols 280
nrows 38
xllcorner 555200
yllcorner 5261320
cellsize 10.0
nodata_value -9999.0
-1.0 80.72132 81.41687 82.2238 82.98737 83.7675 84.3628 84.83463 85.19884 85.59738 86.25839 87.50205 89.03573 90.22262 91.50365 92.87954 94.01768 94.93657 96.25028 98.31052 100.1042 101.1679 101.5546 101.8309 102.1072 102.4464 102.8424 103.5043 104.3176 105.0889 105.855 106.8988 108.1622 109.5601 110.5372 110.8998 110.932 110.7636 110.3627 110.2292 110.5884 111.0645 111.5249 112.0371 112.5704 113.1395 113.8775 114.5141 115.0645 115.1041 115.589 115.8672 116.0775 116.1719 116.1652 116.1529 116.0984 116.0424 116.075 116.1292 116.2002 116.2087 116.0648 115.8674 115.5934 115.2399 114.8804 114.5592 114.2227 113.9234 113.5074 113.0941 112.687 112.2397 111.7851 111.3937 110.9844 110.5881 110.2074 109.9042 109.6018 109.3424 109.071 108.7619 108.324 107.86 107.3921 106.8935 106.4304 106.0106 105.5952 105.2724 104.9502 104.7186 104.5445 104.3304 104.0352 103.8066 103.5974 103.3449 103.0663 102.8336 102.4927 101.992 101.4533 100.9859 100.6228 100.4443 100.3733 100.2368 99.89761 98.98963 97.16967 95.5383 94.87096 94.4708 93.36882 92.27209 91.31068 90.0927 88.78969 87.72799 86.5166 84.96867 83.27137 81.86308 80.89407 80.28586 79.63435 78.64262 77.40179 76.33825 75.61253 75.25231 75.01622 74.60535 73.8878 72.99781 71.77901 69.74142 66.86182 64.36131 61.88728 59.35018 56.76415 54.5249 51.97564 46.85612 40.58163 35.77936 33.41965 32.985130000000005 41.38972 48.77045 54.9599 60.51365 65.77416 70.00674 72.99041 75.0916 75.95174 76.09548 76.11674 76.08516 76.24226 76.53126 76.76936 77.03831 77.46162 78.03468 78.58702 79.18614 79.65501 80.13199 80.65036 81.26018 81.91659 82.63728 83.31715 84.12531 84.93256 85.74391 86.38087 86.82201 87.18065 87.44228 87.48582 87.41302 87.33255 87.20988 86.89882 86.13154 84.83206 83.33816 81.84277 80.28485 78.70935 77.13453 75.82053 74.77067 73.81615 72.87885 71.88251 70.87 69.94413 68.92706 67.94904 66.97175 66.2607 65.68298 65.32122 65.08354 64.92493 64.70168 64.39191 64.04541 63.70595 63.34923 62.96085 62.59021 62.26236 61.88805 61.5027 60.98175 60.21023 59.05529 57.90934 56.83308 55.89988 55.13899 54.53119 53.91567 53.2747 52.63428 52.13274 50.80062 48.32871 47.88209 46.44516 45.20862 43.88037 42.66973 41.79682 40.70576 39.21508 37.58666 36.31083 35.34388 34.58373 33.72164 32.83667 32.00872 31.23975 30.53827 29.75176 29.1064 28.48054 27.87354 27.24872 26.6615 25.78637 24.87648 23.81956 22.68597 21.13456 19.5862 18.12827 17.06915 16.36031 15.69905 14.90245 14.08152 13.16396 11.79382 9.318627 6.855007 5.617762 5.315374 5.126885 -1.0
-1.0 79.99146 80.48251 81.15843 81.93636 82.83581 83.6255 84.29187 84.76942 85.27682 85.96211 87.12946 88.64007 90.01104 91.12885 92.24258 93.35406 94.57967 95.86774 97.38009 98.79582 100.1475 100.9427 101.3315 101.6002 101.8972 102.3412 103.1659 104.0377 104.8264 105.5323 106.4073 107.3787 108.5604 109.6058 110.2517 110.2463 109.9149 109.752 110.007 110.5537 111.0678 111.5382 112.0732 112.5835 113.1877 113.9358 114.5232 114.9305 114.9588 115.3329 115.558 115.7263 115.8258 115.8225 115.8232 115.8055 115.8061 115.8545 115.9497 116.0556 116.0251 115.899 115.7081 115.4473 115.1582 114.8774 114.6191 114.3572 114.0727 113.6541 113.207 112.7569 112.3242 111.8168 111.3901 110.9782 110.6068 110.2812 110.0302 109.7675 109.4546 109.1797 108.9314 108.5066 108.0655 107.5661 106.9946 106.4781 106.035 105.6684 105.4361 105.1993 104.9831 104.8301 104.6595 104.4144 104.1951 103.9862 103.7144 103.3875 103.0402 102.6044 102.1395 101.6707 101.3416 101.1735 101.1151 100.9861 100.8582 100.741 100.3964 99.11724 97.1923 96.08582 95.6304 94.55891 93.57057 92.58747 91.14198 89.54888 88.21513 86.75623 85.3342 83.6257 82.11395 81.20247 80.61069 79.93007 79.02207 77.80897 76.8352 76.27859 76.07767 75.85118 75.39817 74.72018 73.74418 72.34431 70.32642 67.37477 64.73466 62.09125 59.4939 56.82903 54.42402 51.89482 47.40473 41.21332 35.97693 33.47381 33.052 42.71265 49.97688 55.70667 61.75443 66.84818 71.08176 74.42213 76.29283 76.66114 76.7588 76.84714 76.85401 76.92954 77.1904 77.42435 77.70612 78.18023 78.69189 79.18861 79.68166 80.11164 80.5584 81.12033 81.80138 82.48848 83.20605 83.92467 84.70575 85.4472 86.16238 86.77619 87.29218 87.6879 87.88365 87.93504 87.97684 87.97323 87.88254 87.52737 86.89652 85.98047 84.56209 83.0755 81.50893 79.90795 78.10138 76.56809 75.33674 74.40739 73.43771 72.48492 71.56059 70.74601 69.75636 68.67594 67.6106 66.7943 66.15516 65.84604 65.7142 65.58223 65.367 65.05804 64.67997 64.2959 63.95279 63.57168 63.18459 62.86445 62.45388 62.06582 61.6737 61.08676 59.97856 58.51824 57.29073 56.24264 55.41135 54.86078 54.33763 53.69013 52.85635 51.91761 50.73933 49.1494 48.88141 47.4777 46.09199 44.7399 43.59998 42.76808 41.97068 40.96915 39.54809 37.8765 36.50756 35.54412 34.62939 33.67102 32.76934 31.86168 30.94803 30.11765 29.60847 29.13903 28.62357 28.11397 27.51954 26.72896 25.84275 24.76794 23.45754 21.73785 20.57359 20.01823 19.37111 18.49858 17.33822 16.17015 15.22846 14.37269 13.53994 12.10347 10.15359 8.092944 6.488354 5.730456 -1.0
-1.0 79.57413 80.13226 80.79726 81.58525 82.3572 83.2113 84.17961 84.98302 85.79412 86.5388 87.47207 88.5088 89.65291 90.73071 91.90499 92.93478 94.0719 95.11787 96.07857 97.05747 98.48537 99.87733 100.5038 100.8287 101.2485 101.9093 102.8447 103.7088 104.4886 105.1303 105.8279 106.6272 107.624 108.5816 109.2959 109.4869 109.48790000000001 109.5276 110.0419 110.5665 111.009 111.5063 112.044 112.6406 113.2566 113.9244 114.4446 114.736 114.7542 114.9623 115.138 115.2558 115.3085 115.348 115.3792 115.4281 115.604 115.7524 115.8822 115.8325 115.6609 115.6106 115.4977 115.3155 115.1056 114.8943 114.6977 114.4491 114.122 113.7135 113.257 112.7976 112.3569 111.8716 111.4198 111.0038 110.698 110.4436 110.2389 109.9781 109.612 109.3152 109.0866 108.7227 108.3741 107.883 107.2259 106.561 106.0823 105.794 105.6327 105.4805 105.3415 105.1932 105.0144 104.7793 104.5563 104.3249 104.0547 103.7056 103.2757 102.8495 102.4237 102.036 101.8373 101.7008 101.6264 101.5764 101.4836 101.3114 101.1622 100.749 99.35688 97.68356 96.79089 95.71382 94.75544 93.49415 91.94806 90.18353 88.63223 86.93077 85.5889 84.15423 82.85738 81.85452 81.16194 80.33489 79.51624 78.49426 77.5724 77.05049 76.84617 76.54928 76.21265 75.72433 74.82556 73.12627 70.84678 67.97519 65.09447 62.35467 59.58274 56.85555 54.30065 51.71429 47.43155 41.55637 36.01995 33.7361 33.10616 44.12001 50.7415 56.28665 62.71578 67.89538 72.18807 75.61594 76.96531 77.14871 77.37064 77.48663 77.56082 77.64915 77.86643 78.12872 78.44641 78.89291 79.33458 79.83736 80.31057 80.65687 81.06252 81.68399 82.42716 83.12887 83.83173 84.52623 85.2655 85.96243 86.5928 87.1239 87.67838 88.08995 88.34728 88.50583 88.6194 88.63933 88.56212 88.18123 87.55568 86.86993 85.7648 84.34805 82.69354 81.06974 79.20633 77.52554 75.99009 74.98587 74.05063 73.10638 72.2702 71.51391 70.57735 69.51306 68.37215 67.43291 66.80967 66.55621 66.45674 66.32652 66.07643 65.69599 65.28371 64.87798 64.51804 64.17629 63.77763 63.40147 62.97896 62.5747 62.07813 61.45418 60.41627 59.11845 57.80276 56.65846 55.73963 55.2272 54.76272 54.15211 53.10574 51.88617 50.61896 49.4268 49.25091 47.88653 46.2733 45.09588 44.31478 43.61922 42.82677 42.15378 41.21352 39.75966 38.04908 36.74405 35.64678 34.65268 33.49386 32.1216 30.98941 30.37575 30.12896 29.85782 29.48953 28.97104 28.35774 27.57921 26.75806 25.77732 24.60989 23.29067 22.31727 21.86716 21.49471 20.69668 19.51041 18.09313 16.78366 15.64918 14.77225 13.80574 12.75542 11.27068 9.547624 7.808632 -1.0
-1.0 79.50684 80.1218 80.85863 81.56808 82.22601 83.05685 84.1806 85.15952 86.04672 86.80468 87.60938 88.39222 89.43915 90.64274 91.80086 92.63021 93.36304 94.2012 94.99557 95.85014 97.30857 98.7452 99.68461 100.1473 100.8327 101.6525 102.5852 103.4759 104.2186 104.8666 105.5874 106.391 107.1861 107.9645 108.9559 109.5713 109.7901 110.0252 110.2978 110.6308 111.0375 111.5303 112.0661 112.6198 113.1318 113.6849 114.1736 114.504 114.5244 114.7152 114.8622 114.9548 115.0927 115.1703 115.2342 115.4398 115.6228 115.7529 115.7604 115.6696 115.6302 115.6308 115.5522 115.397 115.2012 114.9648 114.7527 114.4585 114.1153 113.7057 113.2434 112.787 112.3823 111.9137 111.4897 111.1465 110.9367 110.7662 110.5536 110.2148 109.8607 109.4676 109.2346 109.0554 108.8664 108.4997 107.8164 106.9431 106.3705 106.132 105.9815 105.8268 105.6812 105.4859 105.3041 105.0618 104.8057 104.5497 104.2707 103.904 103.5108 103.1429 102.7552 102.4538 102.3149 102.2117 102.0939 102.063 101.9285 101.625 101.3427 101.0226 100.0792 98.71992 97.76192 96.67135 95.56978 93.94328 92.34521 90.79414 89.04339 87.14377 85.79193 84.65633 83.556 82.50753 81.63136 80.73208 79.93352 79.13924 78.3008 77.68326 77.36822 77.08045 76.8223 76.55132 76.16448 74.5174 71.59748 68.44653 65.49876 62.60476 59.7847 56.93344 54.28568 51.57413 47.16739 41.51807 35.94292 34.03382 33.36845 45.44594 51.11049 56.99763 63.80933 69.05592 73.25066 76.06582 77.12501 77.52739 77.93189 78.10533 78.23878 78.35095 78.52425 78.86658 79.18071 79.51632 79.93678 80.41156 80.91502 81.33732 81.78839 82.3056 83.00018 83.68736 84.44286 85.12574 85.83999 86.44209 86.98982 87.49757 88.01971 88.42821 88.7947 89.0697 89.24692 89.29841 89.18765 88.8289 88.25956 87.56016 86.69197 85.46922 83.82471 82.12658 80.34038 78.55962 76.83514 75.57165 74.57241 73.56941 72.62138 71.82384 70.923 69.97137 68.98294 68.21259 67.63371 67.31027 67.10635 66.91885 66.67184 66.29301 65.86832 65.45582 65.00391 64.67582 64.3132 63.95462 63.43918 62.88827 62.21293 61.35492 60.37275 59.49131 58.35288 57.23334 56.33375 55.74958 55.23117 54.61322 53.59291 52.37023 51.26858 50.09775 49.91042 48.44177 46.66219 45.59694 44.90931 44.28659 43.59589 42.86819 42.05622 41.18308 39.74394 38.12242 36.6219 35.46097 34.28859 32.69534 31.38625 30.82668 30.76921 30.66978 30.29887 29.76562 29.17283 28.41689 27.67031 26.81258 25.99741 24.98377 24.00765 23.28103 22.7509 22.1345 21.33117 20.07463 18.70566 17.24775 16.04015 14.94726 14.03397 13.03791 12.03763 10.71722 -1.0
-1.0 79.69704 80.20726 80.92353 81.57103 82.19019 82.91636 83.9454 84.98111 85.88126 86.61969 87.26799 87.95293 89.12485 90.51376 91.59939 92.06771 92.38596 93.14822 94.35001 95.58352 96.9362 97.98224 98.92719 99.75925 100.6558 101.543 102.3738 103.1867 103.9321 104.6559 105.4064 106.1205 106.9011 107.705 108.9065 109.9534 110.5417 110.8544 110.9302 110.9582 111.1178 111.637 112.2439 112.6912 113.0931 113.5269 113.9675 114.4296 114.4635 114.7558 114.9289 115.0593 115.1559 115.3591 115.5134 115.5855 115.7039 115.767 115.8505 115.9249 115.9564 115.9713 115.8315 115.6377 115.4149 115.0792 114.75 114.4145 114.0675 113.6965 113.2987 112.8131 112.4172 112.0629 111.7463 111.487 111.3085 111.0808 110.7903 110.4676 110.1261 109.6376 109.4 109.4881 109.5347 109.3855 108.8963 108.0847 107.3847 106.9504 106.6885 106.3882 106.1005 105.826 105.5968 105.3312 105.056 104.8104 104.4979 104.1277 103.8817 103.5161 103.1387 102.9409 102.836 102.7019 102.5554 102.4772 102.2531 101.8673 101.4397 100.9419 100.1904 99.3355 98.57874 97.56573 96.30203 94.62254 92.98632 91.44789 89.61648 87.67971 86.27971 85.16721 84.07412 83.03777 82.06635 81.13118 80.31732 79.61262 78.86819 78.19443 77.80537 77.52992 77.3009 77.01148 76.74879 75.75345 72.73933 68.91605 65.88322 62.83543 59.95289 56.95342 54.20113 51.30838 46.84651 41.23985 35.95748 34.42073 33.66617 47.31991 52.80582 58.27472 64.89626 70.09862 74.09314 76.40176 77.36239 77.85187 78.27174 78.62016 78.88677 79.06371 79.33434 79.51118 79.67871 79.98157 80.4509 80.94324 81.53078 82.06993 82.57037 83.09817 83.73209 84.32497 84.96092 85.63836 86.29833 86.87928 87.40256 87.95569 88.47231 88.89313 89.30033 89.61717 89.82762 89.90312 89.80583 89.5277 89.07378 88.34751 87.47723 86.45802 85.03562 83.38432 81.53004 79.66987 77.79888 76.26114 75.10609 74.05863 72.6657 71.58218 70.6902 70.03935 69.45026 68.93185 68.44882 68.0768 67.72012 67.50121 67.19851 66.80961 66.38696 66.01068 65.56754 65.18254 64.8223 64.48014 63.95875 63.26227 62.34279 61.36436 60.53454 59.88473 59.08332 58.12209 57.23119 56.52486 55.88311 55.17153 54.30775 53.27278 52.21664 51.06559 50.8921 49.57062 47.84577 46.50348 45.58759 44.94265 44.30994 43.5957 42.79699 42.09475 41.16847 39.62656 37.81117 36.40696 35.22178 33.82095 32.63956 31.90947 31.78197 31.60524 31.20528 30.70637 30.10505 29.41203 28.65499 27.86855 27.17377 26.33038 25.4543 24.57851 23.83717 23.18829 22.53292 21.68302 20.65337 19.19897 17.6677 16.34444 15.23939 14.34744 13.44325 12.50874 -1.0
-1.0 80.20039 80.63382 81.22509 81.83889 82.37981 82.83687 83.56698 84.63428 85.55789 86.20393 86.6581 87.15697 88.25927 89.71261 90.76987 91.07298 91.32433 92.16002 93.67602 95.38558 96.67171 97.48762 98.32057 99.41738 100.5491 101.4735 102.2669 102.9408 103.6411 104.4183 105.2067 105.9613 106.8589 107.8174 109.0794 110.326 111.0031 111.2532 111.3817 111.4892 111.6433 112.0158 112.4079 112.6908 112.9958 113.3639 113.848 114.4463 114.4927 114.8828 115.1477 115.4128 115.5859 115.7275 115.8136 115.8141 115.8422 115.8882 115.99 116.0997 116.1914 116.2184 116.0664 115.8211 115.5404 115.1777 114.7866 114.4303 114.1296 113.7698 113.3738 112.9703 112.6612 112.3954 112.1364 111.839 111.6104 111.3686 111.0605 110.725 110.3408 109.8283 109.4959 109.7768 110.2504 110.3268 110.0333 109.6328 108.9329 108.2012 107.6712 107.1005 106.6544 106.2598 105.922 105.6365 105.3329 105.0406 104.7397 104.4215 104.2092 103.8598 103.5015 103.3222 103.2006 103.0712 102.9425 102.7359 102.4236 102.0209 101.5701 101.1123 100.7777 100.1111 99.29932 98.29945 97.00951 95.44108 93.92756 92.2647 90.33687 88.41193 86.8853 85.62624 84.49264 83.32152 82.32087 81.33434 80.56051 79.91267 79.27669 78.59966 78.1835 77.899 77.65491 77.2764 76.96305 76.40085 73.40495 69.31437 66.13895 63.0919 60.12686 57.071 54.02755 50.81534 46.27185 40.87592 35.92229 34.05308 33.859625 49.17234 54.58893 59.88486 66.15701 71.15368 74.8377 76.64222 77.47067 78.09203 78.77811 79.30897 79.6236 79.76746 79.96812 80.02612 80.11662 80.42735 80.8541 81.47796 82.12817 82.71591 83.29034 83.8168 84.38365 84.94963 85.53349 86.1335 86.69415 87.25352 87.79728 88.30489 88.82409 89.28564 89.70939 90.10306 90.38626 90.51892 90.47192 90.21912 89.80563 89.1732 88.28725 87.31077 86.0717 84.55692 82.66869 80.87059 78.86247 77.10547 75.69049 74.55753 72.90209 71.37881 70.59486 70.19394 69.81763 69.47437 69.09399 68.68993 68.2874 68.00496 67.68822 67.29958 66.89397 66.48287 66.08591 65.71317 65.36143 64.99063 64.52541 63.84914 62.88063 61.89369 61.16692 60.53942 59.83318 59.06809 58.23493 57.46952 56.5951 55.74933 55.0236 54.29639 53.24498 52.07145 51.90052 50.73233 49.23851 47.65805 46.44436 45.61428 44.90544 44.20037 43.41528 42.69039 41.91252 40.60403 38.7582 37.17095 35.95125 34.82402 33.95369 33.2987 32.95893 32.58184 32.14522 31.57306 30.96932 30.33456 29.61084 28.90239 28.13273 27.25815 26.43816 25.54527 24.8133 24.16021 23.49634 22.7841 21.98428 20.94375 19.56639 17.97755 16.5949 15.45262 14.63134 13.80098 -1.0
-1.0 81.20538 81.68466 82.10491 82.55012 83.00573 83.23395 83.47289 84.25746 85.07243 85.58038 85.86948 86.1643 86.97474 88.20875 89.22098 89.65944 90.15088 91.14352 92.60536 94.27534 95.78233 96.6633 97.56064 98.86305 100.3206 101.3458 102.1076 102.7211 103.3857 104.2204 105.1347 105.977 106.8798 107.8877 109.2096 110.4715 111.2156 111.4318 111.6649 111.8762 112.0577 112.2478 112.3995 112.5573 112.7329 113.136 113.7412 114.4515 114.5062 115.1508 115.5229 115.8015 115.986 116.0461 116.0503 116.0785 116.1101 116.118 116.1793 116.2896 116.3747 116.3406 116.2323 116.0206 115.6919 115.2344 114.8382 114.4803 114.1183 113.7626 113.4374 113.113 112.859 112.6112 112.3297 112.0596 111.815 111.5195 111.2261 110.8752 110.4315 109.8838 109.7058 110.2248 110.7973 110.9772 110.981 110.8874 110.4017 109.6004 108.7566 107.9134 107.275 106.7267 106.2905 105.9284 105.5983 105.256 104.9723 104.7061 104.4613 104.1679 103.9099 103.6967 103.4631 103.2809 103.1176 102.8444 102.5568 102.1874 101.743 101.3875 101.2756 100.9277 100.1799 99.12718 97.8616 96.39364 94.98753 93.17619 91.15726 89.24417 87.55178 86.05844 84.90369 83.57403 82.44841 81.42798 80.65192 80.05582 79.52114 78.98402 78.54478 78.17532 77.82194 77.4045 77.06955 76.55223 73.72481 69.80164 66.4752 63.43765 60.32725 57.14269 53.8686 50.39434 45.70679 40.62971 35.55464 34.80386 44.51154 50.87024 56.1689 61.41312 67.33385 72.25195 75.63014 77.06966 77.77798 78.54015 79.30768 79.92249 80.37158 80.59348 80.61401 80.48148 80.5014 80.84757 81.42912 82.04511 82.71259 83.38696 84.0277 84.61466 85.1546 85.62946 86.14008 86.61129 87.16711 87.69346 88.21404 88.69105 89.21265 89.69885 90.14986 90.57367 90.9275 91.166 91.20795 91.08318 90.66867 89.96378 89.13432 88.21787 87.1108 85.74206 83.88298 81.96526 79.96799 78.08407 76.48207 75.25828 73.81564 72.27534 71.24315 70.71271 70.30141 69.96557 69.61529 69.2328 68.89049 68.53877 68.17565 67.82011 67.4506 67.03741 66.65113 66.29956 65.97778 65.60222 65.19075 64.63653 63.80601 62.94624 62.15709 61.52376 60.78311 60.04535 59.25467 58.41552 57.4259 56.59645 56.00315 55.46398 54.38278 53.07014 52.86264 51.81372 50.4466 48.94172 47.54465 46.43681 45.5009 44.7672 43.89367 42.89661 41.82697 40.63596 39.22927 37.89539 36.56429 35.62331 35.14501 34.73074 34.24711 33.68042 33.1596 32.59494 32.01467 31.31809 30.61808 29.8797 29.10205 28.26736 27.41975 26.4548 25.7574 25.13861 24.52217 23.79001 23.03126 22.19855 21.31152 20.00261 18.43633 16.93313 15.84254 14.91466 -1.0
-1.0 82.60453 83.23443 83.69492 83.96147 84.22284 84.2812 84.07201 84.19956 84.57317 84.98405 85.2 85.42039 85.9571 86.8747 87.71339 88.26189 89.01639 90.0274 91.28019 92.62148 94.2495 95.51166 96.77502 98.28005 99.90285 101.1322 101.8911 102.4723 103.1154 103.9759 105.0618 105.9834 106.865 107.7696 109.0477 110.3449 111.2318 111.4827 111.6123 111.7041 111.7511 111.8644 111.9667 112.1179 112.3895 112.8881 113.6796 114.6724 114.7475 115.4774 115.8691 116.0938 116.2012 116.2484 116.2436 116.2552 116.2665 116.2959 116.3762 116.5003 116.5331 116.4358 116.3092 116.0781 115.728 115.2927 114.8911 114.4997 114.1375 113.7756 113.4414 113.1442 112.9018 112.6503 112.387 112.1289 111.8932 111.615 111.3236 110.9702 110.5386 109.9998 109.9262 110.5753 111.1093 111.2305 111.2935 111.3256 111.2281 110.6303 109.6335 108.5605 107.6661 106.9827 106.5139 106.1584 105.8137 105.4549 105.1952 104.9073 104.6294 104.3911 104.2039 103.9783 103.7299 103.5065 103.2613 102.9468 102.6368 102.2377 101.8693 101.6585 101.5254 101.2482 100.6497 99.77224 98.63129 97.42677 96.13028 94.21014 92.08947 90.1571 88.35955 86.63028 85.2673 83.86365 82.56817 81.4863 80.72038 80.15657 79.6543 79.19104 78.77475 78.37079 77.9288 77.4366 77.04908 76.47772 73.9679 70.1189 66.84991 63.65218 60.53217 57.20473 53.7041 49.92601 45.27939 40.50477 36.10711499999999 39.83756 46.16568 52.01915 57.13559 62.37771 68.28445 73.1479 76.16489 77.47782 78.31844 79.14059 79.82042 80.34652 80.92876 81.27452 81.25229 81.0471 80.94671 81.29668 81.99596 82.67362 83.41828 84.08945 84.73634 85.3158 85.84407 86.27168 86.69657 87.12815 87.60941 88.14487 88.69167 89.10918 89.60413 90.07842 90.52154 91.00111 91.42368 91.69636 91.76361 91.7092 91.38358 90.79308 90.00729 89.0634 87.97317 86.71481 85.01892 82.92923 80.91444 79.08024 77.43452 76.20546 74.95879 73.70329 72.43394 71.50217 70.89238 70.48658 70.09442 69.77092 69.40723 69.07177 68.68839 68.32949 67.96738 67.57281 67.21005 66.90585 66.57178 66.23917 65.83191 65.3591 64.75855 64.05367 63.22708 62.48146 61.72639 60.99476 60.21731 59.32536 58.39389 57.62268 57.07288 56.52602 55.46763 54.02601 53.77979 52.5741 51.36668 50.11161 48.60095 47.28589 46.15943 45.31093 44.3904 43.08458 41.53622 40.40997 39.59292 38.61384 37.43057 36.58297 36.22662 35.8906 35.44594 34.79379 34.1877 33.53823 32.90841 32.24817 31.56453 30.80785 30.06335 29.2344 28.45651 27.55578 26.75523 26.1027 25.47775 24.77243 24.01921 23.1914 22.4133 21.50034 20.2582 18.75122 17.29064 16.03304 -1.0
-1.0 84.5368 85.06475 85.51159 85.66383 85.6933 85.53713 85.2283 84.80759 84.57343 84.62068 84.66179 84.85176 85.30399 85.89162 86.31894 86.74258 87.42618 88.34579 89.65763 90.91235 92.42625 94.25078 96.03587 97.62165 99.28358 100.7085 101.6165 102.152 102.603 103.3447 104.6249 105.7071 106.6626 107.4532 108.5529 109.8096 110.7255 111.2317 111.297 111.2869 111.3235 111.3777 111.415 111.5159 111.8573 112.6746 113.705 114.7858 114.8657 115.6082 116.1081 116.3032 116.3487 116.4202 116.4277 116.4104 116.4586 116.5579 116.6717 116.6405 116.558 116.4662 116.3303 116.0284 115.6738 115.3089 114.942 114.5839 114.2361 113.8159 113.4305 113.1358 112.858 112.5993 112.4023 112.1448 111.9028 111.6503 111.347 111.0386 110.625 110.0999 110.0583 110.6953 111.1338 111.2072 111.2722 111.3206 111.3774 111.0048 110.1896 109.043 107.8533 107.1022 106.6942 106.3619 106.0566 105.6913 105.3902 105.0591 104.7708 104.5556 104.3766 104.1536 103.9441 103.7174 103.4207 103.0584 102.6774 102.2944 101.9769 101.7263 101.4801 101.1368 100.6599 100.0645 99.27757 98.35162 97.21179 95.47237 93.31321 91.16209 89.23391 87.28539 85.70009 84.23912 82.75441 81.46912 80.75041 80.23891 79.77657 79.31503 78.93237 78.50412 78.04677 77.47712 76.96941 76.22117 73.93858 70.38885 67.20535 63.93562 60.8593 57.52727 53.73986 49.87714 45.2841 37.212064999999996 36.659589999999994 41.42241 47.36562 52.63375 57.80299 63.05116 69.08319 74.05652 76.71703 77.89069 79.01419 79.85531 80.36561 80.77148 81.35727 81.79369 81.93416 81.81932 81.73218 82.0236 82.63578 83.37195 84.2011 84.9127 85.5543 86.05627 86.48072 86.87293 87.28537 87.71062 88.17412 88.61391 89.09052 89.52078 89.99941 90.44277 90.91418 91.42397 91.8995 92.21639 92.32813 92.22984 91.93821 91.52557 90.91743 89.96707 88.79406 87.60563 85.98523 83.98151 81.83355 80.02975 78.48212 77.24776 76.16305 75.27236 73.92571 72.70884 71.73383 71.08305 70.62952 70.30331 69.9277 69.59225 69.21481 68.89922 68.51334 68.12881 67.77515 67.46386 67.14468 66.83884 66.50346 66.1476 65.69975 65.09414 64.412 63.62546 62.79659 62.01978 61.13373 60.28522 59.44643 58.63537 57.90926 57.24619 56.27199 54.89145 54.65976 53.29175 52.08993 50.92727 49.58584 48.27388 47.04276 46.01088 44.98112 43.69973 42.25687 41.17552 40.35541 39.50323 38.5984 37.8314 37.34138 36.95491 36.45602 35.81637 35.22031 34.53279 33.8745 33.1557 32.50105 31.88667 31.1144 30.27224 29.46604 28.63608 27.93099 27.21997 26.46959 25.63753 24.8799 24.21263 23.4423 22.62281 21.75748 20.52788 19.01553 17.59406 -1.0
-1.0 86.42544 86.90471 87.24493 87.30219 87.12386 86.88474 86.54352 85.98795 85.39505 84.89545 84.62168 84.62267999999999 84.83452 85.1497 85.31095 85.57251 85.91339 86.5204 87.92424 89.54213 91.1898 93.22426 95.21602 96.87253 98.50499 99.98756 101.1176 101.6259 101.8487 102.4018 103.741 105.1791 106.199 106.8847 107.7318 108.8314 109.7989 110.42 110.6323 110.7392 110.7782 110.8249 110.8902 111.1677 111.6389 112.3037 113.1624 114.4233 114.5249 115.5558 116.2462 116.58 116.6279 116.5523 116.4751 116.42 116.478 116.5932 116.6918 116.6765 116.5262 116.381 116.2556 115.9888 115.63 115.255 114.9598 114.6449 114.3013 113.9266 113.5704 113.1579 112.8228 112.5826 112.3571 112.1079 111.8527 111.603 111.3524 111.0497 110.6795 110.1944 110.0877 110.4869 110.876 111.0887 111.1618 111.2101 111.2228 110.9941 110.424 109.3765 108.2557 107.4238 106.9322 106.5515 106.2315 105.8715 105.5609 105.2112 104.9178 104.7043 104.4814 104.2693 104.0673 103.8078 103.4944 103.0808 102.7082 102.3957 102.0274 101.6156 101.2889 100.9179 100.5499 100.1629 99.70634 99.07356 98.09613 96.45291 94.40343 92.15313 90.22961 88.09269 86.33457 84.70029 83.03646 81.55253 80.82476 80.35516 79.89944 79.46006 79.07925 78.61224 78.14377 77.52007 76.88474 75.95937 73.84177 70.78274 67.57431 64.35948 61.35639 58.27939 54.49461 50.58352 46.00838 37.76454 39.23714 42.55283 48.16081 53.26905 58.28749 63.42608 69.76965 74.94016 77.30347 78.27698 79.52615 80.60083 81.10238 81.29281 81.72363 82.20267 82.50379 82.53259 82.56906 82.96335 83.61388 84.22008 84.91259 85.61752 86.16357 86.59537 86.99212 87.38683 87.78259 88.18513 88.66785 89.10989 89.50843 89.90132 90.32114 90.77819 91.33199 91.87192 92.33781 92.68912 92.80322 92.66109 92.42758 92.13401 91.61299 90.77301 89.59107 88.34324 86.8362 85.02445 82.67162 80.7375 79.33596 78.23389 77.26859 76.38997 75.20242 73.98465 72.79372 71.91217 71.25932 70.78864 70.41721 70.08089 69.7171 69.37734 68.99461 68.65178 68.33498 68.01533 67.66811 67.36158 67.07911 66.81996 66.45748 66.01517 65.45619 64.7804 63.94117 63.04807 62.07625 61.13026 60.23133 59.46663 58.51029 57.52269 56.36303 55.12712 54.93605 53.79407 52.65707 51.60636 50.37605 49.13275 47.89794 46.79786 45.70984 44.49694 43.20616 42.16877 41.23973 40.46993 39.68672 38.89523 38.24786 37.71312 37.20994 36.68792 36.12461 35.47725 34.78174 34.05431 33.40319 32.74313 32.02837 31.32556 30.594 29.73837 28.98562 28.22141 27.4398 26.63029 25.83946 25.0619 24.32955 23.5456 22.77589 21.82068 20.72733 19.22052 -1.0
-1.0 88.2219 88.67087 89.0982 89.21325 89.05055 88.7735 88.31894 87.73341 87.02331 86.14324 85.22451 84.71808 84.62368 84.63459 84.68616 84.74486 84.8768 85.39146 86.74818 88.60764 90.4006 92.22815 94.32413 96.10155 97.53449 98.84659 100.0362 100.6344 100.8724 101.3105 102.6304 104.2071 105.3984 106.1047 106.7222 107.5021 108.361 109.0447 109.626 109.9375 110.0028 110.0771 110.2937 110.8148 111.4226 112.0232 112.6871 113.8608 113.9591 115.2432 116.0494 116.4697 116.5209 116.3529 116.1975 116.0966 116.0798 116.1595 116.4702 116.6172 116.4445 116.2401 116.0598 115.8455 115.5786 115.249 114.9653 114.6167 114.2665 113.9539 113.6481 113.3204 112.9617 112.6251 112.3416 112.0442 111.8088 111.5497 111.3113 111.0006 110.6469 110.3546 110.156 110.1924 110.4456 110.7254 110.9001 110.989 110.9481 110.7909 110.4018 109.5785 108.4732 107.522 107.0669 106.7234 106.3329 105.9808 105.6895 105.3612 105.0697 104.847 104.6482 104.4364 104.1505 103.8345 103.5125 103.1154 102.7677 102.4521 102.0568 101.6403 101.3024 100.9583 100.6264 100.3231 100.0309 99.64474 98.84801 97.40968 95.47581 93.1809 91.20206 89.126 87.22416 85.4113 83.59713 81.98352 81.09077 80.54782 80.08618 79.62057 79.22032 78.80106 78.28249 77.63361 76.94222 75.9931 74.10801 71.39153 68.43049 65.31692 62.19431 59.23774 55.74561 51.81268 47.30844 38.317015 38.86949 43.03451 48.5076 53.89372 58.78487 63.74017 70.08633 75.20056 77.44879 78.51353 79.78048 80.91229 81.5864 81.9004 82.20238 82.58829 82.98256 83.23679 83.56776 84.02947 84.47195 85.02 85.67027 86.19269 86.69438 87.09202 87.49757 87.88229 88.31812 88.70721 89.11646 89.50878 89.99296 90.41585 90.80289 91.22078 91.78871 92.30026 92.83 93.21099 93.34908 93.2195 92.94068 92.64022 92.14124 91.44239 90.40334 89.14806 87.75912 86.11055 83.7536 81.41331 79.94643 79.07407 78.17065 77.26877 76.25593 75.12553 73.94006 72.94052 72.1234 71.46463 70.93136 70.57593 70.20164 69.84377 69.51366 69.21442 68.88273 68.57431 68.21602 67.94246 67.68684 67.3793 67.02826 66.73844 66.39758 65.92474 65.08955 64.14108 63.10367 62.04549 61.0439 60.20999 59.14408 57.68881 56.1148 55.12196 54.99277 54.2364 53.22283 52.24078 51.10865 49.9595 48.69238 47.62331 46.56047 45.43349 44.17445 43.07024 42.11963 41.39869 40.62443 39.83593 39.11036 38.43185 37.8945 37.43357 36.93764 36.35224 35.69814 34.95465 34.32047 33.58321 32.93584 32.25581 31.55356 30.79748 30.06811 29.28628 28.48439 27.64305 26.87875 26.04108 25.26319 24.48959 23.72946 22.88001 21.98352 20.93035 -1.0
-1.0 90.09628 90.5679 90.93349 91.07662 90.95769 90.79857 90.49454 89.97044 89.14838 88.10555 86.83187 85.63739 84.91188 84.62468 84.62567999999999 84.62668 84.62768 85.15411 86.40441 87.97202 89.68837 91.32449 93.31074 95.07903 96.47647 97.62941 98.59108 99.32535 99.80601 100.4613 101.7288 103.1161 104.3408 105.1062 105.6977 106.287 106.9925 107.7647 108.4391 108.9321 109.1899 109.4127 109.7785 110.3723 111.0162 111.6438 112.2546 113.1958 113.2752 114.4492 115.289 115.8498 115.9274 115.7344 115.5115 115.3925 115.4127 115.7324 116.286 116.5658 116.3995 116.0863 115.848 115.696 115.4966 115.182 114.8889 114.561 114.2145 113.8745 113.5801 113.2811 112.9683 112.6819 112.4229 112.067 111.7478 111.5003 111.2605 110.9466 110.6296 110.3863 110.1822 110.042 110.1094 110.3291 110.5369 110.584 110.4855 110.3347 110.0381 109.4475 108.6083 107.733 107.1883 106.867 106.5099 106.1536 105.8103 105.4781 105.2254 105.0111 104.7908 104.5753 104.278 103.8533 103.4788 103.1452 102.8092 102.4947 102.1397 101.7686 101.4262 101.1035 100.8601 100.6504 100.4089 100.0367 99.33691 98.16228 96.42094 94.26236 92.18335 90.13866 88.12132 86.16701 84.38811 82.69782 81.49285 80.79519 80.30872 79.80789 79.37625 78.97618 78.46291 77.80358 77.14714 76.37612 74.78892 72.21196 69.46931 66.38929 63.22155 60.13386 57.01687 53.15368 48.73959 43.17535 42.66686 43.23032 48.88863 54.0909 58.94968 63.84053 69.68446 74.89843 77.49341 78.71793 79.96708 81.02558 81.73651 82.19232 82.60317 82.97093 83.39609 83.78039 84.25902 84.68986 85.17427 85.72968 86.2704 86.67693 87.11001 87.49941 87.92263 88.37035 88.79835 89.19059 89.59811 89.99985 90.41344 90.80762 91.28915 91.77563 92.3064 92.88407 93.39747 93.7238 93.85182 93.81256 93.52209 93.06616 92.60591 92.04102 91.17458 90.00171 88.55886 86.99778 84.90364 82.32933 80.5859 79.75031 78.86336 77.96185 77.02758 76.05398 74.97842 73.9372 72.97864 72.25858 71.61528 71.12187 70.6739 70.29288 69.99403 69.70161 69.40425 69.07801 68.67854 68.42751 68.20894 67.91802 67.5644 67.25641 66.98811 66.64619 66.07045 65.20693 64.04638 62.90745 61.88133 61.03458 60.14484 58.58257 56.52604 55.40684 55.28654 54.6817 53.82703 52.84554 51.7751 50.64872 49.42619 48.3588 47.24661 46.1502 44.9636 43.86756 42.92688 42.10495 41.31607 40.44102 39.72922 39.11137 38.61729 38.12819 37.65688 37.11493 36.5517 35.86273 35.16002 34.42928 33.77497 33.0703 32.42342 31.73163 31.01031 30.32459 29.57362 28.69836 27.8439 26.97982 26.15939 25.35402 24.56573 23.72516 22.91629 22.07016 -1.0
-1.0 91.88277 92.33981 92.64026 92.8006 92.75278 92.60611 92.40793 92.04543 91.51512 90.67365 89.20522 87.55069 86.18029 85.27065 84.73332 84.62668 84.62768 85.02472 86.04658 87.35435 88.8473 90.5279 92.27264 93.82382 95.28943 96.36288 97.27364 98.07945 98.92834 99.88869 101.0871 102.1462 103.2031 103.9763 104.6671 105.2813 105.9539 106.8007 107.4533 108.0046 108.3401 108.6537 109.1239 109.7078 110.4045 110.9954 111.474 112.2134 112.2769 113.0649 113.7617 114.499 114.7757 114.6631 114.6004 114.6093 114.7439 115.3139 115.9919 116.3344 116.1747 115.8629 115.6425 115.5013 115.3065 115.0415 114.7806 114.4734 114.1658 113.8415 113.5046 113.1922 112.9536 112.6609 112.3787 112.055 111.782 111.4878 111.1958 110.9381 110.6389 110.3424 110.1121 109.9063 109.8299 110.0077 110.1865 110.157 110.0022 109.7734 109.5166 109.0667 108.4786 107.8181 107.317 106.9874 106.6864 106.3159 105.9658 105.6391 105.4142 105.1745 104.9456 104.6929 104.3113 103.8867 103.4572 103.1482 102.8881 102.5172 102.1948 101.8366 101.5471 101.3502 101.1916 101.0489 100.7809 100.3132 99.70421 98.88814 97.37666 95.22784 93.194 91.13972 89.07384 86.98479 85.2524 83.50304 82.09365 81.12551 80.52586 79.99568 79.56156 79.16602 78.6964 78.04591 77.41576 76.7598 75.50146 73.25442 70.56251 67.53725 64.37444 61.11596 58.04545 54.59235 50.08191 44.56499 42.807700000000004 43.417 49.01872 53.80036 58.99561 63.69798 69.0545 74.4023 77.3241 78.65719 79.98241 81.04305 81.80721 82.36125 82.88252 83.30776 83.79415 84.27634 84.72538 85.18122 85.76076 86.29442 86.72653 87.12482 87.52125 87.90565 88.32373 88.80249 89.24837 89.62393 90.02555 90.42028 90.83118 91.39918 92.00123 92.57392 93.19573 93.7752 94.20203 94.32698 94.34786 94.3553 94.20966 93.80713 93.25859 92.64349 91.81772 90.79648 89.35238 87.94103 86.11482 83.82286 81.75114 80.56671 79.66264 78.78392 77.76627 76.87354 75.90337 74.95411 73.99174 73.09916 72.40496 71.80334 71.26875 70.83704 70.48837 70.1409 69.83501 69.53706 69.21068 68.92776 68.68421 68.39967 68.08081 67.76386 67.43042 67.09261 66.70317 66.08421 65.08668 63.90558 62.7334 61.91801 61.37701 60.4933 58.40556 56.42247 56.15449 55.2802 54.48255 53.52896 52.42392 51.28123 50.08982 49.00895 47.90049 46.77097 45.56203 44.54397 43.58575 42.67277 41.75197 40.78026 40.16598 39.78366 39.37471 38.93277 38.43118 37.85242 37.27523 36.66793 36.02177 35.30822 34.59152 33.87339 33.24497 32.59435 31.93327 31.35421 30.66202 29.78358 28.94887 28.06546 27.21091 26.27684 25.44883 24.63983 23.87369 23.02741 -1.0
-1.0 93.57298 94.02467 94.21391 94.32532 94.35326 94.29833 94.16203 93.88213 93.42393 92.7241 91.42142 89.74238 87.9791 86.57014 85.46165 85.05779 84.97803 85.05648 85.59792 86.59599 87.94093 89.60351 91.22116 92.59061 93.96254 95.10844 96.28988 97.16355 97.88272 98.83416 100.133 101.2676 102.2085 102.9605 103.7798 104.528 105.2982 106.0961 106.7471 107.235 107.5032 107.7631 108.1414 108.6945 109.468 110.18 110.6866 111.1538 111.1895 111.5642 112.0576 112.8085 113.2774 113.4713 113.5904 113.6764 113.9491 114.505 115.104 115.5615 115.6694 115.5226 115.3464 115.2855 115.1301 114.8524 114.6364 114.4122 114.1615 113.8559 113.4905 113.1461 112.8722 112.5604 112.3076 112.0491 111.7673 111.4436 111.1889 110.9433 110.6481 110.3297 110.0398 109.8341 109.7025 109.7193 109.8132 109.7029 109.555 109.3384 109.091 108.7467 108.2618 107.762 107.4439 107.1202 106.7941 106.472 106.1151 105.7734 105.5446 105.296 105.0528 104.7576 104.3921 103.9917 103.5269 103.0958 102.818 102.4915 102.1828 101.868 101.6748 101.5549 101.4251 101.2825 100.9752 100.3929 99.84966 99.52484 98.37112 96.09136 94.09614 92.04552 90.02305 87.84964 86.03675 84.322 82.75722 81.45122 80.67583 80.12347 79.72543 79.4108 78.98038 78.33086 77.68496 77.04819 76.13225 74.18311 71.50087 68.61761 65.45133 62.07948 58.8479 55.72969 51.4834 46.22954 43.049350000000004 43.80609 48.71728 53.4581 58.62083 63.14526 68.36437 73.54707 76.76979 78.43157 79.84047 81.03127 81.87981 82.46764 83.01043 83.62874 84.19632 84.67006 85.0994 85.60591 86.18609 86.632 87.02707 87.48138 87.9254 88.30904 88.72517 89.195 89.62744 90.02108 90.42481 90.81345 91.38807 92.11359 92.86724 93.62762 94.38042 94.83185 94.8613 94.76083 94.82387 94.94351 94.92136 94.61503 94.00598 93.31602 92.44085 91.41644 90.10419 88.70382 87.12888 85.44009 83.32482 81.60706 80.42574 79.45835 78.47736 77.56393 76.64225 75.76955 74.8949 74.04261 73.21386 72.46088 71.86181 71.39437 70.99684 70.60365 70.27424 69.9983 69.69257 69.39991 69.12298 68.83002 68.50133 68.18143 67.85751 67.50739 67.05276 66.57254 65.84048 64.80114 63.60935 62.70466 62.1515 61.691 60.31223 57.98357 57.58257 56.1552 55.16809 54.21143 53.07129 51.95341 50.74588 49.71162 48.59739 47.3797 46.05801 45.0642 44.14813 43.18887 42.056 41.0536 40.67725 40.53867 40.12711 39.61372 39.11398 38.57713 37.974 37.34554 36.71628 36.02977 35.39564 34.66884 34.02738 33.34158 32.76059 32.23663 31.58242 30.81793 30.02496 29.07656 28.2091 27.23704 26.30065 25.44583 24.6552 23.80992 -1.0
-1.0 95.32047 95.68035 95.87705 95.96481 96.01632 95.92686 95.82815 95.73671 95.25641 94.63431 93.58228 91.88801 89.87227 88.22279 86.90772 86.25806 85.93816 85.4889 85.28754 85.71279 86.6842 88.13246 89.82787 91.18803 92.46263 93.76043 95.17661 96.13554 96.59145 97.23479 98.50655 99.96023 101.1976 102.093 102.9035 103.6802 104.5011 105.3122 105.9841 106.3965 106.541 106.6987 106.9368 107.4505 108.2615 109.1863 109.7968 110.1383 110.1587 110.4509 110.8601 111.4331 112.0205 112.4492 112.5729 112.5922 112.6841 113.0606 113.809 114.5356 114.7233 114.5995 114.6334 114.7007 114.6223 114.5669 114.4967 114.3319 114.1207 113.8596 113.5597 113.1434 112.7877 112.5481 112.264 111.9522 111.6527 111.3975 111.1667 110.8577 110.5592 110.2449 109.9966 109.7544 109.552 109.5304 109.5217 109.3063 109.1314 108.9145 108.6723 108.4514 108.0996 107.7732 107.5225 107.1993 106.8923 106.5867 106.2675 105.9464 105.7247 105.4721 105.1421 104.8026 104.4577 104.0285 103.5589 103.0564 102.7091 102.4481 102.2137 101.9467 101.7738 101.601 101.4475 101.305 101.0022 100.3858 99.84041 99.70621 98.8988 96.94624 94.89103 92.96912 90.91418 88.65965 86.75422 85.08267 83.39973 81.84266 80.85996 80.28335 79.91802 79.72497 79.40525 78.74904 78.03809 77.37282 76.63493 74.88718 72.36406 69.45354 66.32108 63.03109 59.79839 56.65181 52.56753 47.56186 43.43844 44.4938 48.22471 52.82936 57.84422 62.32964 67.09758 72.32682 76.13815 78.06165 79.62 80.96175 81.86604 82.52984 83.18022 83.92743 84.59317 85.02656 85.51054 86.06252 86.52831 86.92433 87.40897 87.8265 88.24318 88.69663 89.15341 89.52921 89.95043 90.3959 90.84208 91.37559 92.20438 92.98351 93.8715 94.76806 95.56319 95.85157 95.56572 95.27749 95.34136 95.60844 95.76116 95.53477 94.86756 94.03206 93.04478 92.04324 90.90823 89.58177 88.1853 86.81853 85.06306 83.08089 81.25945 80.05597 79.08217 78.18905 77.31699 76.58126 75.78109 74.97932 74.01706 73.13213 72.46976 71.98573 71.4895 71.09051 70.75572 70.52052 70.20866 69.90834 69.59208 69.30963 68.96185 68.55688 68.19301 67.78524 67.29899 66.82149 66.21046 65.37717 64.32278 63.36777 62.72375 62.18835 61.30241 59.34718 58.96904 57.2584 56.07445 55.0397 53.85532 52.65602 51.4932 50.53932 49.38811 48.1524 46.73808 45.62818 44.81612 43.88866 42.75579 41.82735 41.52858 41.39873 40.96275 40.37726 39.83519 39.29725 38.78465 38.1116 37.47674 36.79568 36.11562 35.43157 34.8097 34.13211 33.60539 32.97897 32.32797 31.73862 31.09794 30.25828 29.27985 28.24486 27.31024 26.41372 25.50834 24.66014 -1.0
-1.0 96.72948 96.95306 97.11388 97.19473 97.22947 97.22262 97.14294 97.01054 96.64413 96.27768 95.69514 94.14948 91.76896 89.77905 88.4452 87.70477 87.06969 86.15725 85.30572 85.28854000000001 85.60889 86.52406 88.07419 89.68604 91.17718 92.53333 93.7054 94.64417 95.12422 95.67696 96.79199 98.13851 99.88319 101.1576 102.0963 102.8817 103.6643 104.4326 105.0723 105.4641 105.6047 105.7651 105.8888 106.3802 107.3305 108.2668 108.8254 109.1689 109.1903 109.529 109.9326 110.5028 111.1183 111.5172 111.5216 111.501 111.4781 111.7164 112.6361 113.2115 113.1736 113.1819 113.2606 113.6264 113.9405 114.197 114.2758 114.1594 113.9953 113.7798 113.4853 113.1455 112.7988 112.4588 112.1668 111.905 111.6497 111.3433 111.0603 110.7472 110.4478 110.1996 109.9537 109.6421 109.4552 109.3837 109.1974 109.0049 108.8618 108.5448 108.3083 108.1568 107.9251 107.7001 107.4962 107.2772 107.0072 106.6879 106.4456 106.1675 105.8818 105.5912 105.2508 104.8012 104.3677 103.9518 103.5207 103.0725 102.6967 102.3926 102.1747 101.9319 101.7332 101.5194 101.3279 101.1783 100.9196 100.3796 99.77171 99.40154 98.99596 97.60496 95.53657 93.64196 91.70339 89.4846 87.45572 85.64947 83.92067 82.26238 81.09366 80.48119 80.23324 80.12703 79.87291 79.21737 78.42561 77.6265 76.83979 75.30746 73.11853 70.22245 67.11633 63.75454 60.53178 57.40684 53.33395 48.54591 43.66767666666667 43.89691333333334 44.12615 51.62783 56.72931 61.44429 65.9654 70.93612 75.39372 77.63126 79.42806 80.91548 81.86726 82.55022 83.35024 84.12775 84.80971 85.36296 85.92609 86.40463 86.83027 87.21205 87.70151 88.13191 88.52619 88.93648 89.42084 89.83447 90.30699 90.73784 91.31904 92.14375 92.96683 93.84281 94.86075 95.7096 96.32622 96.44023 96.06994 95.79625 95.995 96.24294 96.36028 96.21852 95.56257 94.58565 93.61944 92.65106 91.48267 90.3624 89.1511 87.98085 86.55545 84.58511 82.19794 80.61312 79.64195 78.79371 77.84845 77.11497 76.45369 75.68349 74.70913 73.75138 72.98514 72.4919 71.99514 71.60918 71.27689 70.99294 70.70796 70.40771 70.10583 69.78596 69.35827 68.87885 68.38657 67.91959 67.44331 66.85229 66.20441 65.51565 64.65421 63.80264 63.09022 62.40705 61.53581 60.11139 59.86206 58.26188 56.86601 55.74161 54.54396 53.37857 52.3436 51.35143 50.27909 49.11409 47.67141 46.40881 45.42099 44.55957 43.69369 42.9122 42.44404 42.0781 41.63942 41.09306 40.58448 40.03246 39.48427 38.85464 38.1946 37.5707 36.89543 36.18058 35.52412 34.90104 34.35206 33.73431 33.12305 32.50499 31.9011 31.27086 30.3842 29.34284 28.3428 27.30181 26.42449 25.51098 -1.0
-1.0 97.84156 98.07566 98.26667 98.35891 98.34917 98.33645 98.31796 98.14496 97.91277 97.61844 97.19289 96.41141 94.30067 91.56258 89.82619 89.02802 88.1949 86.91751 85.58787 85.28954 85.28954 85.41852 86.3252 87.8893 89.69819 91.09209 92.14588 92.93373 93.56479 94.15493 94.94246 96.2081 98.14116 99.88181 101.1839 102.0876 102.8161 103.5299 104.1091 104.4937 104.7013 104.895 105.2493 105.9257 106.8895 107.4792 107.7028 108.0145 108.0414 108.3833 108.8455 109.4733 110.0602 110.4277 110.548 110.5752 110.6133 110.9238 111.826 112.27 111.9203 111.6871 111.8304 112.3545 113.0706 113.6975 113.9932 113.9874 113.8326 113.6278 113.409 113.1502 112.8464 112.4272 112.0926 111.8486 111.567 111.2989 111.0396 110.7303 110.434 110.1417 109.8626 109.5819 109.3563 109.1829 108.9726 108.7402 108.6067 108.3248 108.0132 107.8403 107.752 107.6168 107.4095 107.2069 106.9988 106.7698 106.521 106.2718 106.0149 105.6482 105.2127 104.753 104.3402 103.9198 103.5056 103.1216 102.7936 102.4066 102.0484 101.7943 101.5515 101.3144 101.1505 100.9878 100.7526 100.2958 99.73112 99.27248 99.27598 98.25347 96.24557 94.28416 92.4179 90.30258 88.14974 86.17905 84.58391 82.81741 81.49816 80.8897 80.82572 80.72284 80.34898 79.70792 78.86327 77.90871 77.04182 75.67642 73.67207 70.96204 67.87934 64.58801 61.22348 58.21357 54.1109 49.46687 45.58411 44.7884 44.420750000000005 45.749410000000005 46.019870000000004 60.08821 64.67707 69.6345 74.36559 77.05305 79.10396 80.73243 81.83355 82.61406 83.54137 84.40115 85.10747 85.74358 86.29465 86.70667 87.12764 87.52685 87.94965 88.41189 88.83154 89.23949 89.71732 90.1504 90.62366 91.18658 91.99658 92.90189 93.90041 94.8795 95.77876 96.43935 96.87102 96.88603 96.52289 96.35775 96.54555 96.77393 96.87074 96.68665 96.05912 95.18757 94.15571 93.16594 92.14108 91.21972 90.17559 89.08525 87.72775 85.86642 83.26057 81.29196 80.12156 79.24193 78.28064 77.32368 76.5172 75.79495 74.99783 74.27455 73.57343 73.01138 72.58073 72.20621 71.82877 71.51989 71.21087 70.91354 70.60567 70.21161 69.78425 69.28419 68.62926 67.98104 67.36083 66.67371 65.97254 65.39711 64.74256 64.06359 63.29771 62.50222 61.52074 60.30516 60.11074 58.89147 57.58282 56.325 55.10701 54.08507 53.17015 52.27279 51.3382 50.32255 48.93083 47.53345 46.19711 45.30189 44.59338 43.86786 43.26665 42.79436 42.33173 41.83464 41.32743 40.81179 40.27471 39.68171 39.01986 38.34266 37.71853 36.996 36.3222 35.66312 35.03917 34.42488 33.86417 33.2484 32.6718 31.99288 31.29667 30.39965 29.34542 28.2493 27.31998 26.45997 -1.0
-1.0 98.86729 99.05417 99.23586 99.42725 99.48335 99.47134 99.39625 99.23218 99.01253 98.68414 98.22596 97.63827 96.16402 93.54939 91.22154 90.45119 89.93934 88.31985 86.00545 85.29054000000001 85.29054000000001 85.29054000000001 85.39147 86.45945 88.26665 89.61768 90.71326 91.43284 92.06263 92.58311 93.20911 94.44167 96.24061 98.25474 100.1427 101.3952 102.1346 102.7202 103.2317 103.6672 103.9612 104.2823 104.9695 105.9505 106.6485 106.8789 106.815 106.8223 106.8271 107.0364 107.5355 108.3256 109.0 109.4929 109.7715 109.9449 110.2505 110.872 111.707 111.9231 111.3043 110.9146 111.0914 111.5776 112.3358 113.2474 113.6876 113.7831 113.6889 113.5111 113.3237 113.1183 112.8619 112.4811 112.0826 111.7542 111.4954 111.2515 110.9754 110.6625 110.3633 110.0483 109.7941 109.5453 109.2573 108.9666 108.7371 108.5221 108.357 108.0499 107.7327 107.5848 107.4597 107.3281 107.2117 107.0381 106.8379 106.6314 106.4186 106.2121 105.9581 105.6338 105.2509 104.7778 104.3515 103.9146 103.5111 103.0896 102.7375 102.3495 102.0035 101.6714 101.3866 101.1452 100.9623 100.7954 100.5843 100.2145 99.79028 99.52264 99.79675 98.87415 96.78469 94.85602 93.13887 91.08875 88.83752 86.68537 85.16869 83.60301 82.24423 81.63586 81.57907 81.35601 80.86509 80.19299 79.28576 78.24251 77.28759 76.12067 74.22395 71.70347 68.59185 65.28096 61.91887 58.82906 54.901 50.40023 46.30532 44.85278 46.11706 48.96988 46.290330000000004 58.63476 63.17823 67.99818 72.90764 76.38607 78.64861 80.42416 81.72119 82.68008 83.68329 84.62266 85.38344 86.05311 86.5592 86.94828 87.3989 87.81657 88.23713 88.69334 89.138 89.52826 90.01675 90.43847 90.94582 91.69802 92.67818 93.63731 94.79522 95.74477 96.46922 96.97327 97.3414 97.37334 97.1596 97.05593 97.07747 97.15986 97.1961 96.97977 96.40155 95.645 94.68597 93.78722 92.85268 92.02991 91.2812 90.25758 88.64905 86.73734 84.44367 82.15633 80.595 79.65869 78.63629 77.35928 76.19537 75.56053 75.04955 74.55704 74.07742 73.5835 73.10186 72.68381 72.30743 72.00181 71.69481 71.42097 71.05744 70.61524 70.17472 69.68464 68.99577 68.13948 67.22434 66.45249 65.74149 65.22531 64.77393 64.23927 63.47799 62.56724 61.52277 60.40817 60.2257 59.29687 58.10665 56.78486 55.58232 54.74477 53.88684 53.097 52.29587 51.5204 50.39872 48.86281 47.16235 45.97369 45.21082 44.57509 43.98657 43.43561 42.94525 42.47591 42.03205 41.51943 41.02207 40.46407 39.83809 39.1649 38.50933 37.73106 37.0531 36.36174 35.71487 35.04338 34.49032 33.91428 33.33109 32.65885 31.98524 31.18805 30.21134 29.13772 28.21172 27.37001 -1.0
-1.0 99.80332 100.0492 100.2896 100.4812 100.5992 100.5382 100.4258 100.3585 100.1052 99.71931 99.16978 98.43752 97.30919 95.50114 93.40042 92.2918 91.84927 90.52638 87.60799 85.42406 85.29154000000001 85.29154000000001 85.29154000000001 85.6577 86.87479 88.09406 89.19109 89.94057 90.4842 90.86858 91.34466 92.35697 94.34151 96.52311 98.58345 100.3199 101.4887 102.1251 102.4958 102.8069 103.1231 103.5528 104.2859 105.3209 105.8494 105.8432 105.7674 105.6975 105.6914 105.8053 106.3849 107.2228 107.9334 108.5377 109.0661 109.5483 110.1265 110.8929 111.6168 111.6472 111.0284 110.6705 110.8036 111.2515 112.0239 112.9623 113.3824 113.5039 113.531 113.3718 113.1772 113.0237 112.7807 112.4592 112.0923 111.7192 111.4489 111.2014 110.9046 110.5426 110.2481 109.9944 109.7504 109.457 109.149 108.8389 108.5588 108.2725 108.0037 107.723 107.5159 107.3319 107.139 107.0007 106.8568 106.7093 106.5536 106.3447 106.1494 105.9498 105.7321 105.5131 105.2439 104.8522 104.4305 103.9571 103.5039 103.0589 102.6617 102.3039 102.002 101.6582 101.3501 101.0998 100.8811 100.6895 100.4739 100.191 99.82092 99.56822 99.8816 99.37216 97.43832 95.47865 93.70055 91.79395 89.54722 87.20802 85.62353 84.45632 83.25838 82.54531 82.28583 81.88882 81.35698 80.6105 79.70916 78.64301 77.55855 76.41753 74.72472 72.31234 69.41996 66.00066 62.62651 59.38111 55.57235 51.21555 47.24757 45.10992 45.50863 48.33026 46.560790000000004 46.831250000000004 61.67277 66.05694 71.30951 75.48885 78.14312 80.00278 81.54467 82.67014 83.81754 84.82175 85.6731 86.29523 86.80865 87.2041 87.65602 88.10092 88.54198 88.95197 89.42289 89.8533 90.3252 90.74517 91.41253 92.33458 93.42355 94.50207 95.59779 96.42059 96.99618 97.50542 97.87398 97.88849 97.80508 97.81396 97.69287 97.60956 97.57854 97.2829 96.71067 96.04119 95.18861 94.37754 93.52333 92.75169 92.13528 91.27818 89.65356 87.65311 85.44989 83.16331 81.21435 80.10806 78.969 77.71317 76.501 75.84142 75.40511 74.96186 74.49795 74.04212 73.57736 73.16965 72.79255 72.45469 72.13966 71.8391 71.50625 71.08379 70.55263 69.98566 69.34156 68.46752 67.36649 66.4709 65.8 65.3005 64.89618 64.51922 63.87875 62.8807 61.83878 60.90348 60.76269 59.98525 58.86106 57.53437 56.28489 55.38878 54.65314 53.93718 53.14573 52.4185 51.62144 50.32194 48.45536 46.77487 45.72299 45.07681 44.59488 44.06062 43.59923 43.12504 42.65272 42.18087 41.74265 41.23329 40.66917 40.00436 39.33546 38.56032 37.81953 37.10602 36.41091 35.73744 35.16965 34.56881 33.95703 33.29631 32.58977 31.82622 30.93276 29.9276 29.04562 28.17887 -1.0
-1.0 100.7865 101.1763 101.4722 101.7344 102.0329 102.0053 101.8616 101.6641 101.287 100.7314 100.0437 99.17636 97.97607 96.56079 94.96241 93.9362 93.26698 92.36703 89.88274 86.79747 85.29254 85.29254 85.29254 85.31284 85.90848 86.84583 87.78584 88.52604 89.14309 89.69575 90.10728 90.76807 92.47111 94.62039 96.85126 98.82614 100.3872 101.4677 101.9043 102.1894 102.4537 102.7809 103.1691 103.7778 104.2352 104.3928 104.501 104.5738 104.5777 104.9217 105.624 106.4893 107.2009 107.7921 108.3923 109.1569 110.0258 110.8768 111.4176 111.3621 110.816 110.4293 110.7 111.1637 111.8505 112.717 113.1613 113.2928 113.3477 113.2193 113.0707 112.8788 112.6275 112.3637 112.059 111.7386 111.4419 111.1551 110.8105 110.4867 110.2398 109.9456 109.6609 109.3488 109.0596 108.7554 108.4582 108.0981 107.7549 107.4597 107.2385 107.0344 106.8405 106.6517 106.5065 106.3616 106.2185 106.0429 105.8478 105.6398 105.4459 105.2967 105.1305 104.85 104.4606 104.0182 103.5333 103.0644 102.6973 102.3265 102.0125 101.7093 101.3929 101.102 100.9205 100.7127 100.4715 100.2026 99.83357 99.49899 99.43725 99.41938 98.2336 96.13637 94.23857 92.36271 90.22529 87.70808 86.04074 85.00103 84.04494 83.21444 82.74671 82.23744 81.67715 80.93127 80.06322 79.01411 77.9129 76.65763 75.10032 72.92032 70.29668 66.98666 63.46129 60.21366 56.34417 52.20108 48.44464 45.85174 45.36751 47.90553 47.101710000000004 56.22007 60.53775 64.46712 69.69505 74.20692 77.41906 79.55266 81.35153 82.6627 84.10132 85.14478 85.94755 86.51199 87.00352 87.42712 87.89256 88.33859 88.81808 89.24358 89.71548 90.13525 90.54097 91.11436 91.97333 92.9985 94.16831 95.27969 96.21211 96.94631 97.43628 97.82906 98.30724 98.39811 98.39326 98.38662 98.26756 98.10564 97.95879 97.60868 96.98548 96.29821 95.54665 94.78628 94.05216 93.36845 92.64939 91.85657 90.51583 88.62748 86.36981 84.15726 82.0046 80.59425 79.46671 78.35299 77.26083 76.47223 75.8904 75.40041 74.90373 74.42962 74.01192 73.60676 73.21857 72.90897 72.57829 72.2332 71.87487 71.40512 70.8639 70.26134 69.60315 68.83573 67.80174 66.87355 66.18987 65.62521 65.18637 64.88171 64.36398 63.53423 62.55453 61.70392 61.58622 60.87252 59.90254 58.7007 57.31654 56.18504 55.33177 54.61945 53.90561 53.1286 52.30135 51.26967 49.58554 47.83723 46.47935 45.59439 45.09572 44.66415 44.24153 43.73033 43.23492 42.77365 42.32214 41.8646 41.39589 40.77284 40.11703 39.34515 38.59007 37.89302 37.19099 36.4838 35.83915 35.20821 34.60059 33.88823 33.18967 32.3457 31.49928 30.56106 29.70469 28.86618 -1.0
-1.0 102.2169 102.719 103.1856 103.5874 103.8899 104.0192 104.0254 103.6004 102.868 102.048 101.0142 100.0091 98.80457 97.44031 96.07005 95.20609 94.63228 93.73431 91.93294 89.00741 86.21861 85.29354000000001 85.29354000000001 85.29354000000001 85.31676 85.831 86.64288 87.34267 88.04991 88.77675 89.32207 89.94368 90.89462 92.47614 94.66682 96.6554 98.41338 99.96043 100.7631 101.2499 101.5883 101.8065 101.9318 102.1289 102.3676 102.589 102.7863 103.2783 103.3231 104.0824 104.8985 105.8179 106.5538 107.163 107.7435 108.6572 109.6587 110.6223 111.1353 111.0415 110.4796 110.1859 110.641 111.1563 111.7382 112.5319 112.9464 113.131 113.2178 113.1648 113.0199 112.7574 112.5039 112.254 112.0062 111.7459 111.3982 111.0457 110.7413 110.4412 110.159 109.8477 109.5548 109.2466 108.9108 108.5583 108.2682 107.9566 107.6441 107.2868 107.0005 106.7649 106.5394 106.3201 106.1943 106.0459 105.8505 105.7046 105.5371 105.3289 105.1265 104.997 104.9109 104.6823 104.4069 103.982 103.5508 103.1577 102.7453 102.3857 102.0441 101.7131 101.4447 101.1775 101.013 100.7961 100.5566 100.2478 99.87337 99.44054 99.2051 99.77445 99.00494 96.76718 94.84979 92.93725 90.86684 88.25777 86.39009 85.32951 84.54181 83.71143 83.11349 82.52763 81.91042 81.23355 80.36412 79.35755 78.30859 77.09857 75.74435 73.88421 71.49165 68.33664 64.66488 61.33514 57.72275 54.01772 50.27712 47.23011 45.67915 47.73982 47.372170000000004 47.74120666666667 59.68304 63.29405 67.74929 72.54534 76.38864 78.97056 81.09711 82.7435 84.57989 85.73514 86.24932 86.71334 87.22165 87.65462 88.13697 88.61308 89.05009 89.49847 89.96937 90.42823 90.87204 91.58962 92.5972 93.74659 94.95084 95.97096 96.7669 97.43439 98.05873 98.46223 98.73865 99.02747 99.0204 98.99514 98.96917 98.65087 98.28944 97.9005 97.28667 96.61638 95.8795 95.20243 94.56372 93.88142 93.13841 92.31931 91.24679 89.49741 87.36765 85.25368 82.98566 81.23194 80.02487 78.92074 77.94946 77.14392 76.479 75.84959 75.2986 74.82102 74.42688 74.02303 73.64168 73.30968 72.93764 72.63014 72.19981 71.69908 71.16119 70.57839 69.9363 69.30752 68.52617 67.63696 66.77785 66.20157 65.78629 65.41676 64.93275 64.29371 63.50791 62.69419 62.56364 61.89035 61.07808 60.01695 58.65152 57.36152 56.20089 55.34594 54.56116 53.78124 52.87288 51.96732 50.69784 49.17358 47.62216 46.4592 45.76272 45.28793 44.80701 44.28917 43.82572 43.37204 42.9324 42.48418 42.04482 41.45916 40.89211 40.211 39.47381 38.69199 37.99918 37.29897 36.6126 35.88412 35.25591 34.55019 33.7995 32.91191 32.06738 31.07941 30.24142 29.55281 -1.0
-1.0 103.757 104.3261 104.9445 105.6405 105.8655 105.9647 106.0186 105.6895 104.7958 103.5547 102.1581 100.9275 99.74707 98.5012 97.33951 96.68003 96.05525 94.84 93.17739 90.88217 87.8026 85.61148 85.29454000000001 85.29454000000001 85.29454000000001 85.31456 85.93114 86.73028 87.48457 88.09915 88.69949 89.28388 89.87148 90.9138 92.59084 94.20779 95.84238 97.24736 98.40632 99.37055 99.87153 100.1251 100.2889 100.4782 100.6858 100.8487 101.1219 101.9823 102.0611 103.1865 104.1637 105.1539 105.8332 106.4604 107.1516 108.0977 109.0635 109.9622 110.4196 110.4035 110.0615 110.0298 110.5843 111.1099 111.6536 112.4116 112.8669 113.0527 113.1188 113.1167 113.0049 112.7426 112.4826 112.2304 111.955 111.6673 111.3577 111.0272 110.7051 110.3483 110.0555 109.7575 109.4141 109.0759 108.7256 108.3564 108.0568 107.8106 107.5551 107.182 106.8366 106.5451 106.2627 106.0292 105.8569 105.6401 105.498 105.4023 105.2493 105.0396 104.8346 104.6901 104.5636 104.4169 104.2434 103.921 103.585 103.1781 102.8134 102.5002 102.1304 101.8012 101.5331 101.2747 101.0949 100.8801 100.6309 100.3242 99.93297 99.41563 99.15477 99.93977 99.50861 97.34918 95.32422 93.32653 91.29871 88.80664 86.67077 85.5371 84.80361 84.02964 83.40658 82.77026 82.14936 81.50227 80.63453 79.67282 78.71364 77.66468 76.543 74.94489 72.80692 69.85617 66.2319 62.6729 59.11201 55.76627 52.13403 48.88152 46.67306 47.89096 51.41021 48.11024333333334 59.29228 62.5731 66.49277 71.0668 75.04733 78.12202 80.68437 82.83701 85.05077 86.28391 86.6456 87.00372 87.48637 87.90385 88.38148 88.84193 89.25388 89.71738 90.2186 90.68717 91.33474 92.21255 93.29561 94.43307 95.60137 96.51784 97.27165 97.93002 98.56478 99.03038 99.37213 99.5761 99.60532 99.58289 99.48447 99.165 98.63937 98.18605 97.59979 96.90659 96.27386 95.69587 95.06586 94.38172 93.63221 92.7766 91.84168 90.44353 88.35519 86.12529 83.88265 81.9848 80.56487 79.52375 78.5603 77.70181 76.95483 76.2272 75.6356 75.21201 74.71726 74.34132 74.00315 73.64702 73.29684 72.92536 72.47863 72.01318 71.49136 70.95999 70.35844 69.8317 69.25948 68.55161 67.66629 67.03698 66.5916 66.15939 65.61501 65.03636 64.35878 63.59345 63.46831 62.8441 62.08152 61.26273 60.03377 58.6231 57.17935 56.09108 55.16616 54.37076 53.45225 52.55917 51.6677 50.49488 49.05252 47.62524 46.58512 45.87413 45.32152 44.80132 44.34524 43.87487 43.48758 43.07548 42.64732 42.0664 41.51429 40.97435 40.3311 39.52741 38.75717 37.977 37.2982 36.59262 35.89688 35.15921 34.34276 33.45463 32.57155 31.57068 30.75098 30.15636 -1.0
-1.0 105.5302 106.0388 106.4774 106.8197 107.0268 107.1209 107.0523 106.8333 106.1477 104.9736 103.4401 102.0297 100.7348 99.65035 98.78204 98.16319 97.39051 96.2394 94.61582 92.50412 89.56473 86.82998 85.29554 85.29554 85.29554 85.35851 85.99137 86.68635 87.22533 87.54067 87.96088 88.42725 89.04775 89.78604 90.64272 91.82011 93.27841 94.34846 95.26003 96.19276 96.92091 97.38004 97.74321 97.99257 98.24901 98.55711 99.46678 100.988 101.1092 102.2943 103.2885 104.2721 105.0339 105.7614 106.6174 107.4831 108.173 108.8623 109.2235 109.3861 109.5322 109.8864 110.4552 111.0116 111.6252 112.4124 112.8815 112.9521 112.9777 112.9915 112.9389 112.7525 112.5003 112.2127 111.9093 111.6237 111.3405 111.0425 110.6911 110.2825 109.9562 109.6067 109.2135 108.849 108.4977 108.1482 107.8988 107.6492 107.4245 107.0879 106.7364 106.3817 106.0447 105.7515 105.5164 105.3219 105.186 105.0418 104.8987 104.7266 104.5834 104.387 104.2517 104.1469 103.9991 103.7381 103.4682 103.1557 102.8258 102.5211 102.269 101.9423 101.6253 101.3602 101.1822 101.0139 100.7276 100.4047 100.0233 99.45914 98.95947 98.95863 99.3263 98.20815 95.88631 93.76391 91.71544 89.21016 86.94948 85.69906 85.06323 84.33377 83.65819 83.03082 82.41119 81.7282 80.96577 80.0621 79.22282 78.28249 77.3481 76.11009 74.08105 71.22772 67.67617 64.00615 60.62645 57.42495 53.87567 50.62748 48.27728 48.21111 50.75578 48.47928 59.03769 62.10025 65.74831 69.83575 73.85923 77.17222 80.20174 82.73486 85.16824 86.42656 86.91962 87.2877 87.72714 88.12575 88.56947 88.99934 89.44727 89.92267 90.42682 90.94242 91.79354 92.85444 94.04116 95.18609 96.21564 97.03159 97.80946 98.53708 99.1086 99.57642 99.91589 100.1041 100.2099 100.1269 99.91098 99.53233 99.01181 98.51376 97.92248 97.37109 96.81175 96.27618 95.58107 94.8989 94.15116 93.29491 92.36311 91.21136 89.27652 87.13483 84.81396 82.76248 81.10857 80.11337 79.18894 78.31859 77.41817 76.66473 75.97314 75.51931 75.03366 74.65279 74.30886 73.96778 73.62829 73.23199 72.8148 72.39164 71.8834 71.38834 70.89911 70.50537 70.078 69.49882 68.76333 68.12251 67.56049 67.04988 66.50768 65.88741 65.20975 64.48984 64.38449 63.69065 62.94288 62.21495 61.28837 60.06115 58.48296 56.92673 55.76183 54.92485 54.10923 53.2564 52.40764 51.56875 50.51411 49.04413 47.7418 46.5929 45.79052 45.24743 44.83567 44.47775 44.09732 43.69024 43.25843 42.67942 42.14358 41.62249 41.0614 40.37503 39.54587 38.74258 37.99149 37.2688 36.55526 35.78051 35.01675 34.15926 33.23505 32.2611 31.45104 30.89909 -1.0
-1.0 106.8668 107.2826 107.6177 107.864 108.0139 107.9832 107.7963 107.5148 106.9916 106.0812 104.6713 103.1165 101.6701 100.5917 99.97374 99.56607 98.82528 97.69824 96.10475 93.93267 91.22437 88.34661 85.89258 85.29654000000001 85.29654000000001 85.62112 86.28595 86.71505 87.03242 87.31784 87.54002 87.7905 88.2906 88.89917 89.50391 90.24302 91.14278 92.14438 92.86871 93.47257 93.92688 94.30302 94.7478 95.20457 95.56712 96.17894 97.75106 99.88604 100.05 101.4436 102.4128 103.4301 104.3562 105.3337 106.3004 107.0539 107.4661 107.7729 108.014 108.2861 108.8221 109.5499 110.2448 110.9465 111.6709 112.4918 112.9118 112.9125 112.8596 112.805 112.7828 112.6877 112.4996 112.2208 111.9259 111.6419 111.3426 111.0452 110.6936 110.2746 109.851 109.4077 109.0201 108.6122 108.1938 107.8804 107.7232 107.5062 107.3026 107.0306 106.6794 106.317 105.9652 105.5705 105.2944 105.0607 104.8407 104.6949 104.5508 104.3983 104.3053 104.0849 103.9462 103.8624 103.7143 103.5123 103.3278 103.1712 102.917 102.5939 102.3285 102.0732 101.8205 101.5281 101.3042 101.0889 100.8271 100.4706 100.0548 99.47849 98.72323 98.2385 98.88101 98.53097 96.48724 94.19568 92.14748 89.68279 87.42786 85.95306 85.25977 84.53288 83.87203 83.27357 82.68645 81.99811 81.36858 80.55582 79.72576 78.82677 77.89482 76.80054 75.0407 72.48758 68.85618 65.15618 61.79547 58.77622 55.45131 52.23954 49.65372 48.47409 50.11373 48.84831666666667 58.70274 61.79038 65.38753 69.16394 73.06514 76.37504 79.66528 82.47251 84.92363 86.32267 86.96188 87.40527 87.832 88.23617 88.68756 89.14772 89.63121 90.11422 90.61385 91.22997 92.24359 93.46104 94.74179 95.87626 96.75896 97.53016 98.34475 99.05347 99.6373 100.0893 100.4656 100.7024 100.777 100.6272 100.308 99.89802 99.3989 98.90327 98.30322 97.79784 97.29887 96.80746 96.145 95.41525 94.61999 93.78916 92.85612 91.85186 90.21418 88.02008 85.69815 83.67186 81.85712 80.60739 79.67746 78.81028 77.89212 77.11886 76.39313 75.80637 75.33058 74.93885 74.62643 74.33101 73.99876 73.63022 73.21245 72.78806 72.31486 71.88708 71.49093 71.20495 70.88084 70.45158 69.81122 69.19824 68.5611 67.95346 67.37123 66.72446 66.03532 65.32693 65.22044 64.5248 63.75146 62.97478 62.19261 61.30124 59.7677 57.95613 56.44762 55.48019 54.69143 53.91842 53.08778 52.3098 51.4301 50.14261 48.72589 47.45047 46.38272 45.66205 45.28656 45.0807 44.79504 44.33121 43.80993 43.24337 42.71021 42.16797 41.64336 41.01136 40.25489 39.44479 38.65889 37.895 37.1955 36.39879 35.654 34.87949 34.09126 33.15638 32.34292 31.81478 -1.0
-1.0 108.1217 108.4334 108.7139 108.9147 108.9987 108.9231 108.7006 108.2997 107.6806 106.8826 105.6398 104.2513 102.8406 101.778 101.2576 101.0832 100.6041 99.34967 97.43091 95.23546 92.75423 90.188 87.75714 86.2588 85.79588 86.03323 86.57096 86.88129 87.07296 87.22208 87.32382 87.3978 87.66487 88.04004 88.50288 89.15486 89.84882 90.45154 90.91605 91.22271 91.46243 91.71897 92.10034 92.47702 92.80708 94.13095 96.33468 98.54623 98.70676 100.2771 101.4301 102.5454 103.7147 104.9953 105.9853 106.6111 106.8726 106.9466 107.0544 107.362 107.9695 108.8706 109.893 110.8239 111.5935 112.3952 112.9175 112.9522 112.7106 112.5374 112.542 112.5198 112.3917 112.2197 111.9569 111.638 111.3455 111.0468 110.6669 110.2032 109.7086 109.1648 108.6677 108.2591 107.8597 107.5636 107.4804 107.3163 107.1162 106.9109 106.6402 106.323 105.973 105.4835 105.129 104.8352 104.5502 104.383 104.1706 103.9394 103.8265 103.7153 103.5219 103.3992 103.3754 103.2719 103.1459 103.075 102.9245 102.6297 102.3265 102.101 101.9191 101.6708 101.4678 101.1986 100.8893 100.5141 100.0907 99.47165 98.50021 97.43279 97.3196 97.36613 96.66566 94.77619 92.52567 90.21095 88.015 86.33678 85.47089 84.76016 84.12193 83.53757 82.98301 82.37735 81.77921 81.0405 80.16537 79.3327 78.39744 77.29383 75.88896 73.49741 69.98788 66.24124 62.82853 59.99863 56.85167 53.70204 50.94598 49.12658 49.95404 49.217353333333335 58.10901 61.4009 65.00594 68.78202 72.46497 75.77789 79.03873 81.98965 84.62737 86.25037 86.92976 87.39829 87.90767 88.32735 88.82632 89.32545 89.83148 90.31036 90.82723 91.62945 92.78885 94.04625 95.46082 96.51984 97.33498 98.05001 98.85925 99.55916 100.2 100.6839 101.0764 101.2872 101.3157 101.1982 100.7953 100.2318 99.72022 99.29868 98.81351 98.32122 97.80265 97.30389 96.69653 95.99062 95.11924 94.28244 93.3403 92.33485 91.07503 89.00938 86.68633 84.6461 82.65215 81.20009 80.20554 79.32597 78.42285 77.60748 76.80157 76.15198 75.62447 75.26063 74.942 74.65002 74.3727 74.12338 73.73131 73.32288 72.90533 72.54929 72.22781 71.9274 71.60101 71.29204 70.84082 70.28519 69.60612 68.90979 68.23797 67.62238 66.93474 66.18526 66.06509 65.40716 64.59595 63.71542 62.79603 61.91146 60.54415 58.82607 57.16401 56.114 55.18256 54.42203 53.71824 52.98774 52.11312 50.9905 49.71308 48.41983 47.23385 46.32432 45.96164 45.82456 45.52925 44.98695 44.40719 43.81353 43.2417 42.66257 42.13382 41.56053 40.95929 40.15581 39.33768 38.5193 37.80687 37.05273 36.34628 35.6744 34.95864 34.1591 33.48132 32.96135 -1.0
-1.0 109.2751 109.4821 109.7324 109.8473 109.8952 109.8028 109.5683 109.1385 108.461 107.5372 106.2457 105.1126 104.0789 103.2137 102.5978 102.3109 101.8115 100.6038 98.52975 96.45979 94.05986 91.8523 89.80892 88.40788 87.48778 87.04997 87.2013 87.37946 87.43887 87.4322 87.40564 87.34964 87.39576 87.51213 87.79384 88.27031 88.88578 89.3504 89.66384 89.9372 90.10596 90.23587 90.45844 90.65233 90.9407 92.4228 94.82778 96.92599 97.06827 98.86132 100.5172 101.9514 103.0716 104.2951 105.3742 105.9829 106.187 106.2066 106.1984 106.5302 107.23 108.189 109.2269 110.3941 111.3213 112.0703 112.5972 112.6208 112.3732 112.2497 112.2103 112.2269 112.2215 112.1218 111.9166 111.6378 111.3468 111.0405 110.6503 110.0988 109.4707 108.7205 108.1045 107.7682 107.4423 107.1866 107.105 107.0504 106.9262 106.7666 106.5599 106.2509 105.8998 105.4246 104.9285 104.5447 104.3154 104.0245 103.7482 103.4946 103.304 103.2299 103.0764 102.9997 103.0066 103.0297 102.9121 102.8429 102.7522 102.5241 102.2497 102.0089 101.8352 101.7176 101.5786 101.2876 100.9448 100.5571 100.1135 99.42722 98.33168 97.03777 96.18841 95.88213 95.96327 94.8961 92.7769 90.76636 88.70511 86.775 85.69435 85.02811 84.37807 83.8521 83.34363 82.76823 82.20551 81.51672 80.69605 79.75047 78.80634 77.73592 76.54278 74.29521 70.90528 67.08297 63.79369 61.01886 58.00586 55.02165 52.13064 49.97955 50.13536 49.58639 57.50402 60.94254 64.70123 68.38224 71.89914 75.20644 78.47547 81.41617 84.33414 86.1394 86.94236 87.42198 87.9716 88.44041 89.00432 89.5177 90.03025 90.49187 91.07514 92.04095 93.3576 94.64045 95.96034 96.9258 97.81316 98.61961 99.44353 100.14 100.7717 101.2391 101.5212 101.6865 101.7026 101.5234 101.0806 100.4574 99.98636 99.62212 99.29878 98.89241 98.33711 97.80466 97.18996 96.48508 95.66671 94.78018 93.76591 92.77851 91.51912 89.82233 87.58022 85.55501 83.55447 81.97815 80.71725 79.89589 79.00771 78.12967 77.29312 76.58295 75.94178 75.61801 75.27887 75.02057 74.75667 74.55606 74.30124 73.94685 73.5803 73.21947 72.90462 72.60426 72.2251 71.91534 71.5835 71.11794 70.56588 69.92741 69.18649 68.48391 67.76623 67.04875 66.94232 66.27554 65.4091 64.4063 63.08661 61.74865 60.52555 59.23124 57.78197 56.57886 55.5493 54.91021 54.38259 53.67633 52.75121 51.69201 50.72019 49.57983 48.40538 47.36902 46.92455 46.68326 46.20153 45.55017 44.93861 44.31837 43.71566 43.12754 42.56436 42.00153 41.44842 40.73248 39.89919 39.07645 38.36866 37.65956 37.01878 36.43976 35.77416 35.06232 34.46979 33.94619 -1.0
-1.0 110.5673 110.7313 110.7657 110.8544 110.9495 110.8553 110.538 110.0971 109.2788 108.1375 106.9781 106.1291 105.2873 104.5095 103.8724 103.2477 102.5616 101.4454 99.58997 97.55869 95.30631 93.46736 91.82587 90.68982 89.56826 88.81303 88.49462 88.29434 88.21612 88.0817 87.81281 87.57449 87.43056 87.36655 87.280235 87.6365 88.01791 88.39857 88.67181 88.97892 89.25436 89.35354 89.43845 89.56453 89.94271 91.1994 93.16676 95.17812 95.32295 97.22032 99.4631 101.435 102.4835 103.4652 104.3723 104.997 105.287 105.3926 105.4454 105.8002 106.5194 107.3724 108.2448 109.4177 110.5698 111.3523 111.9072 112.0611 111.9763 111.9347 111.8779 111.8728 111.8838 111.8667 111.7832 111.6116 111.3492 111.011 110.5883 110.029 109.1821 108.0794 107.384 107.1352 106.9545 106.7935 106.7343 106.6903 106.6419 106.5805 106.4233 106.0959 105.6984 105.2307 104.7691 104.3711 104.0055 103.5946 103.218 102.8769 102.6617 102.6072 102.5412 102.3702 102.4188 102.6158 102.5971 102.5487 102.5059 102.3267 102.121 101.9182 101.7442 101.5767 101.4472 101.244 100.9871 100.6259 100.1586 99.4462 98.37878 97.04248 95.98937 95.22654 94.79393 94.11057 92.85659 91.39523 89.54816 87.32491 85.98559 85.21597 84.62926 84.22985 83.86005 83.28625 82.67761 82.0043 81.26187 80.21646 79.19205 78.0608 76.84396 74.88477 71.76791 68.02641 64.6541 61.7847 58.95154 56.34805 53.45599 51.144 50.59134 49.76771 56.91889 60.40969 64.32936 67.8709 71.41261 74.54504 77.9414 81.01032 84.089 86.03501 86.93919 87.44704 88.0042 88.58243 89.21571 89.72372 90.23011 90.71404 91.45361 92.53152 93.85948 95.25706 96.4337 97.32475 98.22847 99.12339 99.97725 100.733 101.2719 101.6 101.8616 102.0184 101.9974 101.7247 101.2076 100.6599 100.3188 100.1405 99.92544 99.52174 98.91584 98.33646 97.69283 97.02121 96.16328 95.20406 94.14245 93.17816 92.06753 90.7009 88.52821 86.50162 84.58751 82.81812 81.32417 80.41166 79.51826 78.73349 77.91465 77.15327 76.5164 75.96716 75.6235 75.40971 75.27216 75.04698 74.76746 74.54306 74.23566 73.85298 73.54125 73.20607 72.82316 72.54663 72.20964 71.81461 71.41093 70.88639 70.1208 69.32872 68.60277 67.87344 67.76462 67.05996 66.18873 65.11989 63.4679 61.70116 60.42856 59.51313 58.43189 57.16579 56.15145 55.65937 55.23816 54.54981 53.50833 52.44264 51.61073 50.74025 49.81145 48.81921 48.06157 47.46809 46.77477 46.04849 45.40344 44.7945 44.18532 43.54859 42.97368 42.3829 41.78849 41.11848 40.34099 39.58157 38.98747 38.37759 37.76674 37.15519 36.57771 35.93971 35.35109 34.74296 -1.0
-1.0 111.3159 111.418 111.4234 111.4298 111.446 111.405 111.3097 111.0245 110.2467 108.9785 107.6932 106.9222 106.2545 105.5433 104.7467 104.0575 103.2423 102.1984 100.715 98.6553 96.44794 94.63832 93.31989 92.24147 91.10439 90.20895 89.63361 89.30141 89.15866 88.91357 88.47968 88.14867 87.80127 87.54084 87.25922785714286 87.23822071428572 87.49406 87.72423 87.89153 88.13818 88.36757 88.47318 88.59402 88.8701 89.44424 90.28857 91.53619 93.48199 93.64182 95.78836 98.30855 100.6399 101.8977 102.6722 103.3471 103.9799 104.3895 104.6 104.8128 105.2121 105.8482 106.557 107.1632 107.996 109.0342 110.1466 111.0316 111.4617 111.5493 111.5232 111.5221 111.4892 111.4218 111.4398 111.5043 111.54 111.372 110.9965 110.4874 109.8422 108.8865 107.5757 106.7466 106.4533 106.4159 106.3528 106.3514 106.3404 106.2854 106.2558 106.1111 105.7906 105.426 104.9912 104.5423 104.0948 103.7007 103.2329 102.7634 102.3464 102.0207 101.8891 101.9167 101.8538 101.9679 102.0954 102.1693 102.2686 102.2282 102.0335 101.8895 101.7365 101.5606 101.3862 101.2011 101.0642 100.9227 100.6248 100.195 99.56878 98.64687 97.43322 96.41164 95.43244 94.53418 93.69737 92.8623 91.76327 90.13059 87.90382 86.30585 85.38982 84.88559 84.65596 84.50311 83.93744 83.16234 82.40801 81.65063 80.62928 79.52644 78.28307 76.94225 75.08347 72.29436 69.02823 65.45084 62.5443 59.72308 57.26587 54.67318 52.35082 50.223690000000005 49.9957 56.51472 59.98753 64.02079 67.57347 71.02182 74.11734 77.5412 80.95127 83.96587 86.00681 86.95806 87.50069 88.12566 88.79531 89.41299 89.92384 90.40379 90.94614 91.87746 93.05422 94.42535 95.73767 96.80253 97.70309 98.65455 99.57512 100.4591 101.1451 101.6062 101.8809 102.1244 102.2878 102.2261 101.9322 101.4261 100.9789 100.7215 100.7005 100.5706 100.167 99.58875 98.90844 98.11553 97.38796 96.4722 95.50611 94.54507 93.55064 92.47807 91.234 89.37872 87.41401 85.45577 83.66264 82.11453 80.94304 80.11287 79.32347 78.48546 77.758 77.12115 76.52911 76.07178 75.87267 75.76868 75.58033 75.34661 75.04671 74.72617 74.44398 74.1456 73.81907 73.42578 73.12346 72.79269 72.41431 72.00531 71.57365 70.87812 70.11431 69.36237 68.59388 68.47037 67.73093 66.78145 65.68137 64.10447 62.38419 60.92939 59.99334 59.00981 57.98306 57.13786 56.63474 56.1554 55.33828 54.1587 53.1298 52.33469 51.64164 50.89635 49.97272 49.00966 48.07597 47.29039 46.5038 45.80029 45.1648 44.56924 43.91298 43.31822 42.67336 42.07764 41.3956 40.69174 40.02085 39.53563 39.08712 38.54968 37.91594 37.32378 36.6646 36.06715 35.42637 -1.0
-1.0 111.8739 111.9072 111.853 111.8331 111.8524 111.8114 111.6216 111.4012 110.8802 109.7334 108.4122 107.6252 107.0229 106.3274 105.5142 104.983 104.378 103.3309 101.7281 99.7755 97.64648 95.92276 94.85716 93.79954 92.48974 91.53454 90.85349 90.49989 90.22202 89.92747 89.56735 89.03817 88.53008 88.07833 87.73507 87.21721357142857 87.43646 87.37776 87.35725 87.49161 87.60712 87.58553 87.64281 87.87418 88.47154 89.37238 90.4087 92.25783 92.4167 94.75317 97.13248 99.57636 101.2062 101.9726 102.4709 103.0042 103.4638 103.853 104.1561 104.592 105.1069 105.6226 106.0443 106.4021 106.8488 108.1241 109.5899 110.5016 110.8097 110.8976 110.897 110.8253 110.7992 110.8495 111.1273 111.4611 111.4307 111.0051 110.3108 109.4431 108.4572 107.2588 106.3109 105.8889 105.8269 105.7894 105.7888 105.7949 105.7777 105.6929 105.5437 105.2563 104.9055 104.4855 104.0609 103.6359 103.2437 102.8213 102.3426 101.9109 101.499 101.2705 101.3347 101.3801 101.3711 101.4446 101.7037 101.9053 101.8828 101.7257 101.5931 101.5027 101.3565 101.1752 100.937 100.8308 100.8009 100.5601 100.1871 99.62778 98.8215 97.80488 96.82253 95.72587 94.65859 93.73036 92.94194 92.02784 90.66474 88.49785 86.5998 85.60792 85.35156 85.42783 85.32317 84.75996 83.84605 82.87443 81.98824 80.95332 79.82915 78.52827 77.09122 75.24182 72.61389 69.57609 66.20228 63.21771 60.43382 58.04953 55.72348 53.59852 51.98317 54.22216 56.92998 60.29171 64.10722 67.70531 70.93585 74.06498 77.65225 81.266 84.26291 86.11779 87.03345 87.64822 88.3615 89.03793 89.633 90.11057 90.61102 91.26992 92.32809 93.54003 94.96982 96.15077 97.15012 98.07717 99.11585 100.0457 100.9327 101.4881 101.8871 102.1805 102.4066 102.571 102.5108 102.231 101.7991 101.3901 101.2392 101.3184 101.2069 100.7663 100.2113 99.51279 98.67805 97.77533 96.78085 95.79417 94.84313 93.88598 92.86784 91.73002 90.18613 88.29752 86.40177 84.68282 82.98965 81.63702 80.66734 79.96076 79.23941 78.51923 77.74405 77.18603 76.76586 76.53186 76.38841 76.19733 75.97288 75.67519 75.35645 75.06152 74.74033 74.44436 74.12495 73.75985 73.41916 73.02239 72.5761 72.10831 71.55628 70.92522 70.13658 69.32851 69.20156 68.47427 67.45238 66.4836 65.26095 63.67087 61.99976 60.73412 59.76482 58.90121 58.05274 57.42978 56.609 55.61657 54.62131 53.68985 52.96749 52.29908 51.68685 50.80079 49.73621 48.61215 47.74427 46.95491 46.23496 45.50532 44.88869 44.25908 43.63662 42.98497 42.3811 41.69566 41.07645 40.59257 40.21848 39.82211 39.35351 38.74118 38.076 37.43612 36.78424 36.15096 -1.0
-1.0 112.3313 112.3195 112.2475 112.23 112.1557 111.8004 111.2791 111.1721 110.6927 109.7439 109.0146 108.3422 107.6849 106.9872 106.3203 106.0448 105.7504 104.777 102.8827 100.943 98.97736 97.51219 96.45177 95.38207 94.24879 93.24986 92.42046 91.85905 91.36033 90.99947 90.57105 90.0244 89.43401 88.91035 88.4213 87.19620642857143 87.17519928571429 87.49269 87.2195 87.05179 87.06448 86.96027 86.77576 86.82066 87.49202 88.61877 89.86316 91.64371 91.78772 93.92234 95.95428 98.17994 100.0345 101.2035 101.7897 102.2009 102.6432 103.1153 103.5005 103.9171 104.3214 104.7583 105.0533 105.2391 105.5484 106.6866 108.1768 109.206 109.6891 109.9241 109.9935 109.9523 109.9665 110.1843 110.7576 111.3703 111.44 110.9386 110.0511 109.061 108.1935 107.2167 106.3139 105.6449 105.3049 105.2064 105.1929 105.136 105.0735 104.8846 104.7311 104.5261 104.169 103.8161 103.544 103.2042 102.8501 102.4869 102.0808 101.6486 101.1911 100.8857 100.9073 100.9392 100.9107 101.0338 101.3632 101.5867 101.5808 101.4751 101.3602 101.2316 101.1278 100.9412 100.662 100.5824 100.5552 100.3322 100.0509 99.54246 98.72852 97.76935 96.73135 95.69676 94.72959 93.79045 92.99125 92.14612 91.0259 89.18695 87.24762 86.17939 86.03259 86.21864 86.11776 85.56367 84.56197 83.33487 82.3261 81.29041 80.10849 78.63911 77.15186 75.28065 72.79234 69.83796 66.72485 63.64644 60.83746 58.51234 56.35846 54.72221 53.23087 55.43113 58.12756 61.35406 65.09899 68.52625 71.81353 74.83604 78.33344 81.72424 84.69585 86.29549 87.18748 87.85999 88.60591 89.29088 89.84695 90.32188 90.88584 91.65711 92.77868 94.01492 95.34106 96.45604 97.42187 98.39635 99.47578 100.4243 101.2433 101.775 102.1678 102.4732 102.6945 102.8154 102.818 102.6366 102.3109 101.9314 101.7977 101.824 101.6966 101.3432 100.7929 100.0403 99.12581 98.1289 97.06773 96.06004 95.07085 94.20249 93.23167 92.18859 90.85565 89.10871 87.20384 85.53603 83.86946 82.53118 81.31858 80.53213 79.83836 79.1702 78.52325 77.96466 77.54013 77.26701 77.07011 76.86404 76.54752 76.24305 75.94956 75.65407 75.35893 75.05465 74.7067 74.33849 73.9978 73.59286 73.12774 72.63945 72.08564 71.55312 70.89851 70.07539 69.94113 69.18049 68.25845 67.33305 66.40283 65.15797 63.45323 61.75902 60.527 59.69258 58.83037 57.83926 56.7015 55.67749 54.96624 54.25124 53.49813 52.73476 52.03829 51.16055 50.1623 49.06181 48.11696 47.26566 46.53115 45.82064 45.18476 44.56784 43.96988 43.35189 42.69198 42.05476 41.54356 41.22032 40.94702 40.62644 40.23821 39.56845 38.80878 38.04133 37.30052 36.54436 -1.0
-1.0 112.7735 112.7287 112.6409 112.5788 112.3572 111.696 111.01 110.533 110.1213 109.8051 109.4895 109.014 108.4522 107.8052 107.2881 107.0575 106.7939 106.0846 104.3121 102.0385 100.2738 99.2746 98.14757 97.03057 96.07721 95.29032 94.51878 93.66598 92.96687 92.41725 91.7787 91.20584 90.57127 90.03368 89.44389 88.90723 87.15419214285714 87.133185 86.77491500000001 86.86123 86.59126 86.35129 85.97985 85.9362 86.71235 87.94035 89.31975 91.02927 91.16377 92.90353 94.63721 96.50905 98.26599 99.82998 100.7394 101.4901 102.0412 102.5212 102.8802 103.1515 103.4495 103.8132 104.1496 104.4934 105.1112 106.175 107.2832 108.0227 108.4506 108.7155 108.8007 108.8944 109.0496 109.4191 110.0544 110.7148 110.9353 110.4359 109.5145 108.7117 108.0184 107.1737 106.4229 105.6418 105.0355 104.7292 104.5415 104.2962 104.082 103.8542 103.5674 103.3478 103.1863 103.187 103.1469 102.8644 102.5517 102.2288 101.8834 101.4738 101.0153 100.5582 100.3861 100.4353 100.597 100.8431 101.084 101.2502 101.2761 101.1807 101.0769 100.9817 100.8109 100.5465 100.3951 100.3503 100.2763 100.1335 99.91154 99.40285 98.63662 97.553 96.53477 95.59264 94.72069 93.86169 93.08257 92.25999 91.35184 89.9193 88.2414 87.28973 87.1851 87.0463 86.73789 86.13885 85.1453 83.8286 82.63454 81.53852 80.27956 78.65938 77.02568 75.14634 72.66423 69.95219 66.9442 64.00002 61.13147 58.89145 56.78767 55.25864 54.35456 55.063480000000006 59.44656 62.60818 66.28948 69.66577 73.20514 76.22903 79.34028 82.33616 85.06563 86.57936 87.38294 88.06145 88.86192 89.57856 90.15047 90.686 91.36887 92.21178 93.28773 94.46745 95.69624 96.73038 97.71245 98.69145 99.72582 100.6997 101.4493 101.9496 102.3595 102.699 102.9787 103.1161 103.1886 103.1327 102.89 102.5809 102.4323 102.3287 102.1307 101.8455 101.3815 100.6483 99.67229 98.62457 97.38177 96.30626 95.37851 94.5895 93.65522 92.60984 91.39268 89.8598 88.0252 86.33687 84.80383 83.4393 82.12325 81.11588 80.43394 79.85181 79.28599 78.79086 78.39662 78.01371 77.71529 77.45134 77.0817 76.81316 76.56452 76.26834 75.96272 75.63782 75.28297 74.94136 74.53716 74.13997 73.68655 73.23094 72.66183 72.11118 71.54921 70.86237 70.74882 70.01667 69.155 68.28381 67.38608 66.44736 65.03189 63.22435 61.52973 60.40422 59.45304 58.31432 57.08741 56.13333 55.42729 54.77883 53.9732 53.12241 52.26176 51.3078 50.34808 49.38295 48.44704 47.56691 46.8238 46.10588 45.45789 44.86782 44.34875 43.71939 43.08327 42.4864 42.0536 41.80123 41.58239 41.34796 41.02625 40.45161 39.71466 38.68498 37.51849 36.32785 -1.0
-1.0 113.2184 113.1406 112.9165 112.6009 112.2319 111.6318 111.0349 110.718 110.5642 110.3853 110.119 109.7373 109.2875 108.6967 108.1029 107.7368 107.3366 106.7899 105.5275 103.4237 101.7599 100.7542 99.7586 98.77922 97.86832 97.16624 96.24613 95.32136 94.84354 94.33877 93.57471 92.74806 91.88321 91.17271 90.56358 89.93758 89.15685 88.29519 86.63993 86.504945 85.621075 85.70739 85.38121 85.39508 86.08399 87.12969 88.4696 90.17564 90.30998 91.8598 93.35894 94.89751 96.42812 97.98177 99.2851 100.6577 101.5657 102.0454 102.3112 102.5105 102.69 102.9086 103.2067 103.7122 104.5188 105.6016 106.4544 106.9454 107.2551 107.5192 107.6911 107.8607 108.0213 108.3341 108.7473 109.1969 109.4569 109.0166 108.4198 107.9918 107.5346 106.9197 106.3343 105.5625 104.812 104.2519 103.8427 103.3945 102.9194 102.6042 102.4332 102.4371 102.4757 102.5997 102.6404 102.4898 102.2632 101.9581 101.6658 101.2858 100.7617 100.2185 100.0155 100.0682 100.2073 100.5465 100.7532 100.87 100.9168 100.7924 100.6743 100.5337 100.3127 100.1788 100.137 100.109 100.0575 99.95059 99.76303 99.30428 98.58837 97.51754 96.48747 95.64581 94.87217 93.98557 93.17878 92.31636 91.41328 90.33572 89.16427 88.35497 88.00443 87.60386 87.09637 86.46114 85.55698 84.22916 82.82851 81.63914 80.35007 78.65041 76.86018 74.92229 72.41162 69.78979 66.78476 64.02229 61.34165 59.13947 56.99776 55.57395 56.06257 55.379200000000004 60.56403 63.67476 67.26754 70.89346 74.38798 77.45673 80.29216 83.02094 85.49348 86.79225 87.53562 88.28513 89.15527 89.89535 90.50387 91.13238 91.88307 92.75983 93.81485 94.83856 96.00208 96.98778 97.99109 98.97813 99.96091 100.8468 101.5463 101.9895 102.4546 102.8626 103.2026 103.3782 103.5232 103.595 103.4268 103.1584 102.9933 102.8347 102.6154 102.329 101.8311 101.1181 100.2149 99.18882 97.90807 96.69957 95.71087 94.94856 94.08537 93.06622 91.91766 90.5261 88.78507 87.13139 85.65016 84.32491 83.00814 81.83464 80.98905 80.5067 80.0618 79.58056 79.15704 78.78016 78.36369 77.98523 77.6568 77.36463 77.0557 76.76984 76.4527 76.15917 75.84674 75.53593 75.1515 74.71068 74.22285 73.76861 73.18256 72.675 72.09574 71.52489 71.43723 70.80535 69.96064 69.13945 68.21675 67.31194 66.16135 64.60847 62.66174 61.24265 60.02709 58.89204 57.76012 56.83733 56.08519 55.33803 54.50874 53.45014 52.41697 51.3848 50.4479 49.56346 48.68345 47.81121 47.08307 46.3072 45.67757 45.10192 44.61231 44.05428 43.52684 42.9551 42.52024 42.25951 42.03236 41.79722 41.5469 41.13691 40.50455 39.45117 37.89 36.43787 -1.0
-1.0 113.7038 113.4806 113.2236 112.8248 112.3466 111.9008 111.4961 111.3002 111.1985 111.1344 110.9566 110.5926 110.1085 109.544 109.0216 108.3747 107.7556 107.078 106.0022 104.5004 103.1589 102.1787 101.297 100.4398 99.65044 98.9221 97.90306 97.14562 96.6321 96.26366 95.88118 95.03974 94.05545 93.0239 91.90325 91.02593 90.26704 89.40223 88.27297 86.93964 85.45798500000001 85.294895 84.831805 84.91812 85.39617 86.2091 87.34471 88.84693 88.96532 90.51151 91.89206 93.37207 94.64934 95.82399 97.15598 99.04008 100.6501 101.4421 101.6377 101.7839 101.8844 102.0264 102.2455 102.6112 103.3211 104.3259 105.1566 105.7301 106.0549 106.3232 106.4975 106.6763 106.8813 107.0612 107.1683 107.2095 107.3208 107.2967 107.1399 106.9768 106.7183 106.3364 105.8326 105.159 104.3515 103.6798 103.1849 102.6519 102.0759 101.4722 101.4103 101.6717 101.8224 101.9929 102.0799 102.0128 101.8389 101.6232 101.3634 100.9608 100.3851 99.84521 99.64838 99.6637 99.85908 100.1431 100.2033 100.2858 100.3284 100.2738 100.1728 100.08 100.0944 99.98485 99.82549 99.8323 99.81081 99.74055 99.61359 99.28945 98.75661 97.90312 96.97593 96.10966 95.23038 94.23251 93.23784 92.304 91.41959 90.4975 89.59959 88.87766 88.34674 87.82327 87.28032 86.71175 85.88182 84.49064 83.05755 81.68408 80.26192 78.4668 76.62129 74.6069 72.24528 69.55507 66.61572 63.8902 61.41137 59.29234 57.24469 56.34142 57.15085 55.69492 56.23906 64.36035 68.22173 72.14146 75.6377 78.40182 81.00948 83.56052 85.85033 86.95817 87.73245 88.55054 89.43558 90.1861 90.9205 91.63747 92.42851 93.2855 94.32211 95.31848 96.34756 97.22371 98.21135 99.17377 100.1072 100.9478 101.5754 102.0535 102.5652 102.9843 103.3378 103.5959 103.815 103.9875 103.9251 103.7611 103.6267 103.3579 103.1035 102.795 102.2828 101.6286 100.8067 99.72343 98.51974 97.41447 96.31411 95.44258 94.53291 93.48067 92.37417 91.12103 89.53296 88.05401 86.60884 85.41291 84.06069 82.87267 81.85883 81.22765 80.79081 80.32848 79.89111 79.46432 78.96825 78.59517 78.16381 77.78915 77.46395 77.16174 76.90905 76.66994 76.39892 76.1419 75.74942 75.30821 74.82436 74.32404 73.78263 73.21019 72.64888 72.07707 71.99236 71.51727 70.76115 69.85963 68.91823 68.00122 67.08939 65.86859 63.90288 62.00205 60.49648 59.48725 58.53521 57.61757 56.84536 55.98232 55.08139 53.81201 52.56957 51.46593 50.5483 49.69337 48.90315 48.06684 47.2961 46.50092 45.87452 45.32146 44.83704 44.38612 43.92395 43.39156 42.95116 42.6725 42.42957 42.17567 41.93461 41.59998 41.16235 40.20361 38.5962 37.10885 -1.0
-1.0 114.1435 113.9181 113.587 113.1511 112.7186 112.3172 112.0206 111.8209 111.6514 111.5587 111.4445 111.2279 110.8079 110.1554 109.481 108.8341 108.1378 107.3408 106.246 105.1203 104.2444 103.6016 102.8121 102.1648 101.4524 100.4498 99.46397 98.76046 98.18855 97.80787 97.35651 96.78324 96.11765 95.44049 94.1591 92.72844 91.45892 90.40789 89.42326 88.15185 86.83982 85.71774 84.81643 84.801055 84.88737 85.44129 86.33091 87.59572 87.69582 89.08282 90.41636 91.84908 93.07681 94.13737 95.27584 96.83147 98.65041 99.95811 100.5664 100.8407 100.9172 101.0406 101.1358 101.4565 102.0899 102.766 103.524 104.1685 104.656 105.0713 105.3719 105.5527 105.7286 105.8406 105.8955 105.8632 105.8132 105.9222 105.9714 105.9025 105.7777 105.4329 104.9289 104.3112 103.6595 103.1202 102.6938 102.1938 101.5688 100.7512 100.5672 100.9061 101.1238 101.3204 101.4539 101.4355 101.361 101.2181 100.9325 100.4979 99.97565 99.48988 99.23033 99.16231 99.35019 99.51926 99.58841 99.65759 99.65948 99.68855 99.66008 99.67671 99.76387 99.6792 99.57135 99.58466 99.56128 99.52957 99.44593 99.26131 98.91071 98.35729 97.5874 96.63026 95.56696 94.40823 93.27565 92.20226 91.3267 90.50969 89.7219 89.03436 88.41242 87.87256 87.40488 86.80244 85.96226 84.57542 83.08269 81.59721 80.13274 78.2683 76.37275 74.21719 71.91637 69.18969 66.24794 63.65907 61.33982 59.59875 58.25643 57.67494 58.14652 56.7832 61.90042 64.55905 68.84907 72.89748 76.48041 79.14967 81.65912 84.04563 86.03845 87.06731 87.92019 88.75378 89.66882 90.46884 91.283 92.08614 92.90936 93.81608 94.80719 95.81779 96.6957 97.48093 98.39695 99.29563 100.1564 100.9491 101.5687 102.1319 102.646 103.0622 103.4225 103.7782 104.0838 104.2858 104.3144 104.227 104.1525 103.9378 103.6551 103.2433 102.6814 102.1515 101.3696 100.3465 99.15897 98.07101 96.98507 95.99641 94.97046 93.98147 92.83181 91.64913 90.21743 88.88635 87.54914 86.34325 85.09925 83.9659 82.9141 82.14542 81.47347 80.96269 80.47482 79.98954 79.56144 79.13574 78.66075 78.2355 77.86996 77.58797 77.3473 77.05555 76.7735 76.55972 76.23827 75.82587 75.30356 74.80048 74.28281 73.71558 73.14885 72.57166 72.4862 71.97978 71.3148 70.45758 69.528 68.62589 67.66905 66.71138 65.10202 62.8129 60.89584 59.93077 59.27241 58.41784 57.50999 56.53421 55.50996 54.25234 52.86645 51.5508 50.57772 49.8213 49.09086 48.33709 47.58535 46.77063 46.05649 45.50359 45.07239 44.67678 44.23236 43.71911 43.27129 42.98065 42.7812 42.52097 42.22663 41.87027 41.52022 40.85721 39.57019 37.91086 -1.0
-1.0 114.6176 114.3782 113.9626 113.5921 113.1526 112.7656 112.4907 112.2493 112.048 111.9396 111.8101 111.5795 111.1966 110.6 109.8498 109.1981 108.4709 107.6342 106.7371 106.047 105.4791 105.0026 104.4865 103.9973 103.1596 101.9905 100.8105 99.98627 99.44735 99.15837 98.81484 98.41555 97.85855 97.25483 96.491 95.26556 93.78943 92.21594 90.90481 89.64992 88.44939 87.14571 86.1214 84.778418 84.755781 84.733144 85.34536 86.17108 86.24051 87.36632 88.7496 90.17472 91.29527 92.29711 93.43868 94.93559 96.40345 97.56726 98.34554 98.76062 99.01228 99.1695 99.34171 99.84875 100.5851 101.3114 101.8387 102.3209 102.7607 103.3229 103.9329 104.4738 104.7478 104.8019 104.8446 104.8377 104.7955 104.8188 104.8095 104.6899 104.4961 104.2003 103.7515 103.2558 102.8736 102.4696 102.1235 101.6979 101.0745 100.3051 99.90036 99.98142 100.2626 100.5204 100.6404 100.6785 100.6303 100.4818 100.217 99.84297 99.39559 99.00501 98.69948 98.54276 98.61461 98.7086 98.80464 98.82383 98.87387 99.02891 99.1405 99.24201 99.28672 99.37696 99.3775 99.29702 99.26791 99.26153 99.22687 99.1866 99.04208 98.67101 97.96169 96.91026 95.75691 94.49232 93.28704 92.07689 91.13828 90.327 89.67725 88.98148 88.3684 87.86074 87.37178 86.73309 85.86005 84.47872 82.97037 81.50987 79.95671 78.05508 76.03018 73.7106 71.05421 68.45119 65.72471 63.30474 61.10638 60.02205 59.64451 59.23122 57.30729 57.96055 62.12593 64.68822 69.02332 73.38853 76.93815 79.66984 82.19555 84.48469 86.23686 87.20061 88.03845 88.92667 89.85091 90.74148 91.589 92.44152 93.32384 94.35882 95.42615 96.30567 97.04475 97.74046 98.54832 99.37282 100.153 100.8712 101.5216 102.1202 102.6935 103.1574 103.5808 103.9662 104.2972 104.5313 104.6684 104.644 104.5797 104.5175 104.2918 103.8627 103.3222 102.7166 101.9066 100.9471 99.81906 98.76812 97.67962 96.59407 95.49326 94.48603 93.3591 92.19682 90.97177 89.78741 88.55416 87.2998 86.1159 84.98077 83.92809 83.00975 82.24177 81.60403 81.02088 80.46298 79.98149 79.57253 79.13605 78.6767 78.26255 77.96588 77.70897 77.47151 77.15677 76.86726 76.57735 76.25164 75.81792 75.34171 74.80813 74.26023 73.61462 73.02468 72.93789 72.38636 71.72408 70.99699 70.13065 69.20285 68.17397 67.24207 65.99201 63.88105 61.65577 60.85052 60.43825 59.48756 58.18022 57.03437 55.98158 54.64255 53.17596 51.709 50.63465 49.96043 49.37252 48.65867 47.91888 47.08025 46.33116 45.71959 45.28417 44.8552 44.4851 44.06102 43.61058 43.26439 43.03837 42.79143 42.53134 42.16088 41.78626 41.32077 40.33535 38.79284 -1.0
-1.0 115.0184 114.6893 114.327 113.9905 113.5376 113.1803 112.8661 112.6276 112.4248 112.2564 112.0518 111.749 111.3631 110.8492 110.1019 109.5682 108.9821 108.2811 107.5957 107.0722 106.6167 106.2762 106.1142 105.8477 105.0019 103.7718 102.2513 101.1835 100.7527 100.4613 100.1356 99.80698 99.36923 98.89921 98.1938 97.22169 96.13037 94.68895 93.05989 91.49767 90.13863 88.83044 87.64289 86.49674 85.63 84.71050699999999 84.68786999999999 85.18633 85.217 85.92055 87.00774 88.27548 89.39706 90.45445 91.57472 92.92553 94.01345 95.0356 95.8381 96.40379 96.75583 96.77635 97.05568 97.78552 98.68799 99.76147 100.396 100.7705 101.1301 101.7405 102.65 103.4889 103.8631 103.9246 103.9054 103.8231 103.6869 103.5213 103.4048 103.2981 103.1106 102.8931 102.61 102.3469 102.1038 101.7735 101.472 100.976 100.212 99.52371 99.09092 99.04338 99.24678 99.45613 99.60258 99.66553 99.60613 99.42905 99.19885 98.93157 98.58733 98.31408 98.11997 97.94748 97.85181 97.92303 97.98814 97.9966 98.12213 98.35075 98.63361 98.85262 98.95937 99.08444 99.05984 98.9437 98.90938 98.96548 98.98898 99.03966 99.05328 98.85777 98.1207 96.96496 95.83167 94.55526 93.27811 91.93536 90.93996 90.23177 89.67126 89.00592 88.27631 87.61904 87.06514 86.47562 85.57132 84.14743 82.62595 81.2415 79.63593 77.73569 75.62702 73.06346 70.20528 67.55235 65.19649 63.3126 61.68435 61.15602 59.05925 59.01432 58.842349999999996 58.308465 62.10667 64.46333 68.72333 73.49139 77.0768 79.82711 82.42607 84.71842 86.37357 87.27345 88.11637 89.02588 89.95981 90.85138 91.7589 92.64845 93.64075 94.70547 95.82651 96.6135 97.3236 98.00591 98.71679 99.40498 100.1165 100.729 101.3679 102.0406 102.7332 103.2674 103.7702 104.1795 104.5187 104.7597 104.9244 104.9796 105.0008 105.0012 104.8408 104.544 104.0965 103.4046 102.529 101.5228 100.4548 99.40774 98.29707 97.20187 96.05457 94.96654 93.87341 92.78022 91.74648 90.68655 89.46007 88.24742 86.98788 85.84193 84.69749 83.67793 82.82789 82.13691 81.44711 80.86416 80.32059 79.8717 79.45558 79.05725 78.64131 78.30094 78.03516 77.77486 77.45419 77.18694 76.90016 76.56641 76.23118 75.82541 75.30798 74.70144 74.03493 73.34513 73.23408 72.6889 72.03728 71.35382 70.49278 69.55599 68.61481 67.71064 66.56987 64.92965 63.03269 62.05806 61.3559 60.18739 58.78199 57.47515 56.38672 54.999 53.46182 51.80935 50.73085 50.24731 49.91759 49.24011 48.30087 47.31048 46.54726 45.88604 45.40622 44.97934 44.63096 44.25991 43.8781 43.515 43.2597 43.00959 42.71561 42.33847 41.94506 41.53273 40.81432 39.60205 -1.0
-1.0 115.3561 115.046 114.7128 114.292 113.9414 113.6126 113.2235 112.9546 112.7549 112.5438 112.2544 111.912 111.4514 110.8862 110.2489 109.9114 109.611 109.2286 108.6923 108.2473 107.8536 107.6346 107.4564 107.1986 106.7622 105.8811 104.344 103.127 102.5516 102.1793 101.9219 101.5133 101.1017 100.6064 99.76927 98.9394 98.0088 96.97416 95.72591 94.01835 92.32291 90.78142 89.53719 88.11197 86.9221 85.8831 84.66523299999999 84.64259599999998 84.61995899999998 84.93741 85.57368 86.37864 87.27584 88.4286 89.70268 90.87808 91.61176 92.14342 92.80926 93.88302 94.70867 95.00917 95.30695 95.81741 96.80694 98.19287 99.15569 99.65262 100.0724 100.9076 101.9891 102.7375 102.9997 103.0533 102.9788 102.7882 102.5474 102.1976 101.9398 101.8171 101.7025 101.6025 101.5421 101.4129 101.0969 100.659 100.2603 99.59996 98.80715 98.08923 97.71246 97.78152 97.9804 98.17991 98.32741 98.31652 98.308 98.2004 98.06525 97.94228 97.74788 97.55895 97.45194 97.27676 97.14566 97.14499 97.18147 97.28572 97.49359 97.77895 98.20476 98.42912 98.53374 98.66383 98.68407 98.62365 98.5854 98.6629 98.72038 98.83418 98.97989 98.90083 98.19219 97.06775 95.91252 94.70281 93.38754 91.98087 90.94611 90.36631 89.82298 89.03414 88.08849 87.24401 86.62833 85.91952 84.93363 83.5869 82.15454 80.62148 78.99761 77.04698 74.81233 72.09521 69.22865 66.57931 64.82653 64.11384 63.74619 60.984049999999996 60.021649999999994 63.18484 62.4179 58.65637999999999 61.9207 63.7876 67.38374 72.6624 77.0659 79.80469 82.44886 84.77983 86.42163 87.28269 88.12151 89.00972 89.94228 90.8115 91.77795 92.71033 93.79166 94.87914 95.98249 96.78529 97.53197 98.19908 98.84106 99.43504 100.0557 100.6114 101.229 101.9709 102.7482 103.3923 103.9827 104.4087 104.7765 105.0374 105.2068 105.3407 105.4364 105.4464 105.4506 105.2882 104.9698 104.361 103.3481 102.2504 101.138 100.1238 99.01006 97.83153 96.5752 95.50902 94.43159 93.42986 92.48895 91.61077 90.55153 89.32727 87.74728 86.43832 85.28178 84.25708 83.32063 82.56203 81.80495 81.16888 80.63191 80.15987 79.7508 79.36364 78.97614 78.64089 78.30927 78.0554 77.758 77.46853 77.16812 76.86568 76.56861 76.25688 75.76582 75.09483 74.43846 73.71964 73.60564 72.98846 72.33144 71.63364 70.83547 69.94962 68.99354 67.99825 66.90175 65.63483 64.13209 62.87722 61.77468 60.50488 59.21984 57.87565 56.72825 55.43177 53.83953 52.16474 51.2713 51.02436 50.75361 49.88415 48.61896 47.50167 46.65722 45.94765 45.47 45.12311 44.79108 44.43971 44.1293 43.77323 43.4315 43.20352 42.90095 42.48286 42.08362 41.67088 41.1761 40.17653 -1.0
-1.0 115.7386 115.4532 115.0789 114.6225 114.282 113.9413 113.5419 113.2209 112.9588 112.7434 112.4082 111.9525 111.4341 110.8965 110.4544 110.3207 110.2295 110.0004 109.6498 109.347 109.0749 108.8297 108.6319 108.3232 107.8771 107.0845 105.8641 104.8763 104.5329 104.3673 104.0091 103.5976 103.2477 102.5508 101.4904 100.4305 99.50265 98.53925 97.64312 96.45673 94.81977 92.88541 91.2928 89.85069 88.46619 87.17767 86.05643 85.08813 84.59732199999998 84.574685 84.661 85.07663 85.65096 86.70049 87.99397 89.02509 89.78845 90.20155 90.78658 92.04164 93.15894 93.80492 94.16601 94.8344 96.02645 97.31443 98.1955 98.79836 99.52036 100.6809 101.6776 102.1762 102.2612 102.281 102.2083 101.952 101.4998 100.9446 100.4591 100.2497 100.2074 100.0954 100.0548 99.89528 99.56937 99.08008 98.45494 97.75228 97.11137 96.52416 96.35093 96.56083 96.75246 96.96893 97.13311 97.17578 97.18191 97.13713 97.09977 97.05179 96.96249 96.91057 96.78722 96.56416 96.40087 96.36144 96.49269 96.66775 96.84072 97.28965 97.85727 98.006 98.06794 98.20128 98.16706 98.21551 98.27772 98.37013 98.44396 98.6096 98.7766 98.56036 98.03597 97.13657 95.98193 94.8485 93.77644 92.54132 91.57722 90.75996 90.02056 89.01759 87.84051 86.92002 86.2309 85.29266 84.22049 82.88406 81.57477 80.01665 78.29108 76.19218 73.61671 70.9242 68.2259 66.08521 65.28938 65.7746 63.57422 62.279135 66.58293 66.14025 65.63707 64.78429 62.76116499999999 63.60162999999999 65.14004 70.96635 76.68452 79.64355 82.30802 84.71442 86.41805 87.25675 88.06651 88.91577 89.7711 90.63622 91.60587 92.63119 93.79975 94.93533 96.02612 96.82127 97.58855 98.31408 98.94094 99.53026 100.1349 100.6822 101.2571 101.9646 102.716 103.4171 104.1079 104.5581 104.953 105.2637 105.4992 105.6983 105.8893 105.9436 105.977 105.9388 105.8221 105.3602 104.3123 103.1565 101.9414 100.9585 99.90727 98.62256 97.08152 95.83287 94.83511 94.10161 93.28716 92.46439 91.52006 90.18412 88.34128 86.78999 85.57569 84.61488 83.71651 82.92393 82.13235 81.43073 80.82774 80.34549 79.96929 79.63024 79.26689 78.93273 78.5527 78.25915 77.97713 77.75121 77.44923 77.148 76.84199 76.54677 76.04295 75.36199 74.65661 74.04034 73.95365 73.29934 72.51757 71.82692 71.07549 70.25616 69.28452 68.23109 67.1179 65.93959 64.60084 63.39785 62.0363 60.71159 59.40988 58.12618 56.94792 55.68647 54.38531 53.03484 52.15866 51.87113 51.34401 50.25272 48.91966 47.73948 46.80008 46.04707 45.56538 45.21864 44.91904 44.62251 44.34297 44.02147 43.66622 43.37267 43.07315 42.64885 42.25257 41.78969 41.32566 40.48854 -1.0
